39.5 180.5 14.35
39.5 181.5 14.28
39.5 182.5 14.18
39.5 183.5 14.09
39.5 184.5 13.78
39.5 185.5 13.73
39.5 186.5 13.64
39.5 187.5 13.45
39.5 188.5 13.06
39.5 189.5 12.94
39.5 190.5 12.88
39.5 191.5 12.72
39.5 192.5 12.38
39.5 193.5 12.26
39.5 194.5 12.28
39.5 195.5 12.31
39.5 196.5 12.32
39.5 197.5 12.2
39.5 198.5 12.08
39.5 199.5 11.98
39.5 200.5 11.87
39.5 201.5 11.9
39.5 202.5 11.99
39.5 203.5 12.13
39.5 204.5 12.41
39.5 205.5 12.49
39.5 206.5 12.51
39.5 207.5 12.62
39.5 208.5 12.76
39.5 209.5 12.87
38.5 180.5 15.51
38.5 181.5 15.41
38.5 182.5 15.26
38.5 183.5 15.1
38.5 184.5 14.75
38.5 185.5 14.63
38.5 186.5 14.48
38.5 187.5 14.21
38.5 188.5 13.78
38.5 189.5 13.66
38.5 190.5 13.65
38.5 191.5 13.55
38.5 192.5 13.24
38.5 193.5 13.13
38.5 194.5 13.16
38.5 195.5 13.22
38.5 196.5 13.25
38.5 197.5 13.15
38.5 198.5 13.03
38.5 199.5 12.93
38.5 200.5 12.89
38.5 201.5 12.92
38.5 202.5 13
38.5 203.5 13.16
38.5 204.5 13.44
38.5 205.5 13.51
38.5 206.5 13.49
38.5 207.5 13.58
38.5 208.5 13.72
38.5 209.5 13.8
37.5 180.5 16.35
37.5 181.5 16.16
37.5 182.5 15.97
37.5 183.5 15.75
37.5 184.5 15.37
37.5 185.5 15.19
37.5 186.5 15
37.5 187.5 14.72
37.5 188.5 14.36
37.5 189.5 14.28
37.5 190.5 14.35
37.5 191.5 14.34
37.5 192.5 14.12
37.5 193.5 14.04
37.5 194.5 14.06
37.5 195.5 14.12
37.5 196.5 14.14
37.5 197.5 14.09
37.5 198.5 14.02
37.5 199.5 13.95
37.5 200.5 13.94
37.5 201.5 13.97
37.5 202.5 14.03
37.5 203.5 14.16
37.5 204.5 14.4
37.5 205.5 14.46
37.5 206.5 14.43
37.5 207.5 14.5
37.5 208.5 14.65
37.5 209.5 14.67
36.5 180.5 17.01
36.5 181.5 16.74
36.5 182.5 16.51
36.5 183.5 16.26
36.5 184.5 15.88
36.5 185.5 15.63
36.5 186.5 15.4
36.5 187.5 15.12
36.5 188.5 14.93
36.5 189.5 14.92
36.5 190.5 15.04
36.5 191.5 15.12
36.5 192.5 15.06
36.5 193.5 15.02
36.5 194.5 15.04
36.5 195.5 15.08
36.5 196.5 15.1
36.5 197.5 15.09
36.5 198.5 15.07
36.5 199.5 15.05
36.5 200.5 15.03
36.5 201.5 15.05
36.5 202.5 15.09
36.5 203.5 15.17
36.5 204.5 15.3
36.5 205.5 15.33
36.5 206.5 15.3
36.5 207.5 15.36
36.5 208.5 15.49
36.5 209.5 15.47
35.5 180.5 17.81
35.5 181.5 17.52
35.5 182.5 17.32
35.5 183.5 17.04
35.5 184.5 16.61
35.5 185.5 16.23
35.5 186.5 15.9
35.5 187.5 15.59
35.5 188.5 15.66
35.5 189.5 15.64
35.5 190.5 15.72
35.5 191.5 15.84
35.5 192.5 16.03
35.5 193.5 16.05
35.5 194.5 16.06
35.5 195.5 16.11
35.5 196.5 16.25
35.5 197.5 16.31
35.5 198.5 16.35
35.5 199.5 16.38
35.5 200.5 16.37
35.5 201.5 16.36
35.5 202.5 16.33
35.5 203.5 16.29
35.5 204.5 16.15
35.5 205.5 16.1
35.5 206.5 16.04
35.5 207.5 16.06
35.5 208.5 16.2
35.5 209.5 16.13
34.5 180.5 18.65
34.5 181.5 18.41
34.5 182.5 18.25
34.5 183.5 18.03
34.5 184.5 17.66
34.5 185.5 17.26
34.5 186.5 16.88
34.5 187.5 16.59
34.5 188.5 16.72
34.5 189.5 16.7
34.5 190.5 16.74
34.5 191.5 16.88
34.5 192.5 17.18
34.5 193.5 17.28
34.5 194.5 17.31
34.5 195.5 17.37
34.5 196.5 17.46
34.5 197.5 17.52
34.5 198.5 17.55
34.5 199.5 17.55
34.5 200.5 17.43
34.5 201.5 17.41
34.5 202.5 17.37
34.5 203.5 17.32
34.5 204.5 17.18
34.5 205.5 17.11
34.5 206.5 17.04
34.5 207.5 17.03
34.5 208.5 17.07
34.5 209.5 16.94
33.5 180.5 19.36
33.5 181.5 19.19
33.5 182.5 19.09
33.5 183.5 18.95
33.5 184.5 18.72
33.5 185.5 18.36
33.5 186.5 17.98
33.5 187.5 17.73
33.5 188.5 17.93
33.5 189.5 17.93
33.5 190.5 17.94
33.5 191.5 18.06
33.5 192.5 18.33
33.5 193.5 18.48
33.5 194.5 18.54
33.5 195.5 18.6
33.5 196.5 18.58
33.5 197.5 18.59
33.5 198.5 18.58
33.5 199.5 18.53
33.5 200.5 18.32
33.5 201.5 18.3
33.5 202.5 18.29
33.5 203.5 18.26
33.5 204.5 18.2
33.5 205.5 18.12
33.5 206.5 18.04
33.5 207.5 17.98
33.5 208.5 17.93
33.5 209.5 17.74
32.5 180.5 20.05
32.5 181.5 19.91
32.5 182.5 19.85
32.5 183.5 19.77
32.5 184.5 19.68
32.5 185.5 19.37
32.5 186.5 18.99
32.5 187.5 18.83
32.5 188.5 19.11
32.5 189.5 19.15
32.5 190.5 19.14
32.5 191.5 19.21
32.5 192.5 19.37
32.5 193.5 19.55
32.5 194.5 19.64
32.5 195.5 19.69
32.5 196.5 19.5
32.5 197.5 19.46
32.5 198.5 19.42
32.5 199.5 19.35
32.5 200.5 19.1
32.5 201.5 19.11
32.5 202.5 19.12
32.5 203.5 19.12
32.5 204.5 19.17
32.5 205.5 19.08
32.5 206.5 18.96
32.5 207.5 18.85
32.5 208.5 18.73
32.5 209.5 18.48
31.5 180.5 20.79
31.5 181.5 20.66
31.5 182.5 20.66
31.5 183.5 20.64
31.5 184.5 20.59
31.5 185.5 20.27
31.5 186.5 19.86
31.5 187.5 19.7
31.5 188.5 20.04
31.5 189.5 20.1
31.5 190.5 20.07
31.5 191.5 20.11
31.5 192.5 20.2
31.5 193.5 20.4
31.5 194.5 20.51
31.5 195.5 20.53
31.5 196.5 20.23
31.5 197.5 20.18
31.5 198.5 20.2
31.5 199.5 20.18
31.5 200.5 19.98
31.5 201.5 19.99
31.5 202.5 19.98
31.5 203.5 19.94
31.5 204.5 20.07
31.5 205.5 19.94
31.5 206.5 19.8
31.5 207.5 19.67
31.5 208.5 19.53
31.5 209.5 19.26
30.5 180.5 21.41
30.5 181.5 21.27
30.5 182.5 21.27
30.5 183.5 21.28
30.5 184.5 21.29
30.5 185.5 21.03
30.5 186.5 20.66
30.5 187.5 20.57
30.5 188.5 20.94
30.5 189.5 21.03
30.5 190.5 21.01
30.5 191.5 21.03
30.5 192.5 21.04
30.5 193.5 21.2
30.5 194.5 21.28
30.5 195.5 21.26
30.5 196.5 20.91
30.5 197.5 20.89
30.5 198.5 20.96
30.5 199.5 21.01
30.5 200.5 20.85
30.5 201.5 20.88
30.5 202.5 20.87
30.5 203.5 20.78
30.5 204.5 20.86
30.5 205.5 20.7
30.5 206.5 20.57
30.5 207.5 20.45
30.5 208.5 20.38
30.5 209.5 20.13
29.5 180.5 22
29.5 181.5 21.85
29.5 182.5 21.85
29.5 183.5 21.89
29.5 184.5 21.97
29.5 185.5 21.82
29.5 186.5 21.57
29.5 187.5 21.54
29.5 188.5 21.85
29.5 189.5 21.9
29.5 190.5 21.85
29.5 191.5 21.84
29.5 192.5 21.78
29.5 193.5 21.85
29.5 194.5 21.87
29.5 195.5 21.81
29.5 196.5 21.52
29.5 197.5 21.54
29.5 198.5 21.66
29.5 199.5 21.76
29.5 200.5 21.68
29.5 201.5 21.72
29.5 202.5 21.71
29.5 203.5 21.6
29.5 204.5 21.57
29.5 205.5 21.39
29.5 206.5 21.27
29.5 207.5 21.19
29.5 208.5 21.21
29.5 209.5 21.03
28.5 180.5 22.55
28.5 181.5 22.41
28.5 182.5 22.41
28.5 183.5 22.51
28.5 184.5 22.71
28.5 185.5 22.68
28.5 186.5 22.56
28.5 187.5 22.56
28.5 188.5 22.71
28.5 189.5 22.69
28.5 190.5 22.59
28.5 191.5 22.53
28.5 192.5 22.41
28.5 193.5 22.41
28.5 194.5 22.37
28.5 195.5 22.28
28.5 196.5 22.09
28.5 197.5 22.16
28.5 198.5 22.29
28.5 199.5 22.42
28.5 200.5 22.46
28.5 201.5 22.49
28.5 202.5 22.47
28.5 203.5 22.35
28.5 204.5 22.21
28.5 205.5 22.03
28.5 206.5 21.93
28.5 207.5 21.87
28.5 208.5 21.93
28.5 209.5 21.79
27.5 180.5 23.07
27.5 181.5 22.97
27.5 182.5 22.98
27.5 183.5 23.13
27.5 184.5 23.5
27.5 185.5 23.54
27.5 186.5 23.47
27.5 187.5 23.39
27.5 188.5 23.36
27.5 189.5 23.25
27.5 190.5 23.13
27.5 191.5 23.09
27.5 192.5 23.05
27.5 193.5 23.05
27.5 194.5 23
27.5 195.5 22.91
27.5 196.5 22.78
27.5 197.5 22.83
27.5 198.5 22.93
27.5 199.5 23.04
27.5 200.5 23.16
27.5 201.5 23.16
27.5 202.5 23.11
27.5 203.5 22.98
27.5 204.5 22.79
27.5 205.5 22.62
27.5 206.5 22.54
27.5 207.5 22.49
27.5 208.5 22.49
27.5 209.5 22.36
26.5 180.5 23.66
26.5 181.5 23.61
26.5 182.5 23.6
26.5 183.5 23.7
26.5 184.5 24.08
26.5 185.5 24.17
26.5 186.5 24.17
26.5 187.5 24.09
26.5 188.5 23.95
26.5 189.5 23.73
26.5 190.5 23.56
26.5 191.5 23.51
26.5 192.5 23.61
26.5 193.5 23.66
26.5 194.5 23.64
26.5 195.5 23.56
26.5 196.5 23.49
26.5 197.5 23.48
26.5 198.5 23.49
26.5 199.5 23.52
26.5 200.5 23.62
26.5 201.5 23.63
26.5 202.5 23.62
26.5 203.5 23.52
26.5 204.5 23.3
26.5 205.5 23.16
26.5 206.5 23.08
26.5 207.5 23
26.5 208.5 22.9
26.5 209.5 22.74
25.5 180.5 24.31
25.5 181.5 24.32
25.5 182.5 24.29
25.5 183.5 24.31
25.5 184.5 24.56
25.5 185.5 24.64
25.5 186.5 24.68
25.5 187.5 24.61
25.5 188.5 24.43
25.5 189.5 24.14
25.5 190.5 23.92
25.5 191.5 23.89
25.5 192.5 24.13
25.5 193.5 24.22
25.5 194.5 24.23
25.5 195.5 24.16
25.5 196.5 24.13
25.5 197.5 24.07
25.5 198.5 24.01
25.5 199.5 23.97
25.5 200.5 24.05
25.5 201.5 24.06
25.5 202.5 24.08
25.5 203.5 24.01
25.5 204.5 23.78
25.5 205.5 23.64
25.5 206.5 23.55
25.5 207.5 23.43
25.5 208.5 23.21
25.5 209.5 23.02
24.5 180.5 24.92
24.5 181.5 24.96
24.5 182.5 24.9
24.5 183.5 24.85
24.5 184.5 24.97
24.5 185.5 25.03
24.5 186.5 25.05
24.5 187.5 25
24.5 188.5 24.87
24.5 189.5 24.58
24.5 190.5 24.37
24.5 191.5 24.36
24.5 192.5 24.62
24.5 193.5 24.73
24.5 194.5 24.75
24.5 195.5 24.68
24.5 196.5 24.66
24.5 197.5 24.57
24.5 198.5 24.48
24.5 199.5 24.42
24.5 200.5 24.49
24.5 201.5 24.48
24.5 202.5 24.48
24.5 203.5 24.41
24.5 204.5 24.15
24.5 205.5 24.01
24.5 206.5 23.9
24.5 207.5 23.76
24.5 208.5 23.49
24.5 209.5 23.27
23.5 180.5 25.44
23.5 181.5 25.47
23.5 182.5 25.4
23.5 183.5 25.32
23.5 184.5 25.37
23.5 185.5 25.35
23.5 186.5 25.3
23.5 187.5 25.25
23.5 188.5 25.3
23.5 189.5 25.12
23.5 190.5 24.95
23.5 191.5 24.91
23.5 192.5 24.97
23.5 193.5 25.07
23.5 194.5 25.12
23.5 195.5 25.08
23.5 196.5 25.03
23.5 197.5 24.96
23.5 198.5 24.92
23.5 199.5 24.91
23.5 200.5 24.94
23.5 201.5 24.84
23.5 202.5 24.74
23.5 203.5 24.58
23.5 204.5 24.32
23.5 205.5 24.16
23.5 206.5 24.05
23.5 207.5 23.89
23.5 208.5 23.68
23.5 209.5 23.45
22.5 180.5 25.62
22.5 181.5 25.64
22.5 182.5 25.59
22.5 183.5 25.53
22.5 184.5 25.54
22.5 185.5 25.53
22.5 186.5 25.49
22.5 187.5 25.49
22.5 188.5 25.62
22.5 189.5 25.52
22.5 190.5 25.41
22.5 191.5 25.38
22.5 192.5 25.37
22.5 193.5 25.4
22.5 194.5 25.39
22.5 195.5 25.31
22.5 196.5 25.27
22.5 197.5 25.25
22.5 198.5 25.27
22.5 199.5 25.33
22.5 200.5 25.38
22.5 201.5 25.24
22.5 202.5 25.05
22.5 203.5 24.8
22.5 204.5 24.44
22.5 205.5 24.24
22.5 206.5 24.09
22.5 207.5 23.93
22.5 208.5 23.79
22.5 209.5 23.61
21.5 180.5 25.81
21.5 181.5 25.82
21.5 182.5 25.78
21.5 183.5 25.71
21.5 184.5 25.66
21.5 185.5 25.66
21.5 186.5 25.66
21.5 187.5 25.7
21.5 188.5 25.83
21.5 189.5 25.78
21.5 190.5 25.72
21.5 191.5 25.72
21.5 192.5 25.74
21.5 193.5 25.72
21.5 194.5 25.66
21.5 195.5 25.55
21.5 196.5 25.56
21.5 197.5 25.56
21.5 198.5 25.62
21.5 199.5 25.71
21.5 200.5 25.75
21.5 201.5 25.58
21.5 202.5 25.33
21.5 203.5 25.02
21.5 204.5 24.59
21.5 205.5 24.35
21.5 206.5 24.17
21.5 207.5 24.02
21.5 208.5 23.93
21.5 209.5 23.8
20.5 180.5 26.09
20.5 181.5 26.08
20.5 182.5 26.03
20.5 183.5 25.95
20.5 184.5 25.85
20.5 185.5 25.84
20.5 186.5 25.87
20.5 187.5 25.93
20.5 188.5 26.02
20.5 189.5 26
20.5 190.5 25.98
20.5 191.5 26
20.5 192.5 26.07
20.5 193.5 26.05
20.5 194.5 25.98
20.5 195.5 25.88
20.5 196.5 25.9
20.5 197.5 25.89
20.5 198.5 25.93
20.5 199.5 25.98
20.5 200.5 25.98
20.5 201.5 25.79
20.5 202.5 25.52
20.5 203.5 25.19
20.5 204.5 24.8
20.5 205.5 24.56
20.5 206.5 24.37
20.5 207.5 24.23
20.5 208.5 24.16
20.5 209.5 24.06
19.5 180.5 26.46
19.5 181.5 26.41
19.5 182.5 26.34
19.5 183.5 26.25
19.5 184.5 26.16
19.5 185.5 26.14
19.5 186.5 26.15
19.5 187.5 26.2
19.5 188.5 26.27
19.5 189.5 26.29
19.5 190.5 26.29
19.5 191.5 26.31
19.5 192.5 26.33
19.5 193.5 26.33
19.5 194.5 26.29
19.5 195.5 26.24
19.5 196.5 26.21
19.5 197.5 26.15
19.5 198.5 26.09
19.5 199.5 26.03
19.5 200.5 25.96
19.5 201.5 25.74
19.5 202.5 25.48
19.5 203.5 25.21
19.5 204.5 25
19.5 205.5 24.78
19.5 206.5 24.6
19.5 207.5 24.46
19.5 208.5 24.35
19.5 209.5 24.26
18.5 180.5 26.69
18.5 181.5 26.61
18.5 182.5 26.52
18.5 183.5 26.42
18.5 184.5 26.35
18.5 185.5 26.36
18.5 186.5 26.4
18.5 187.5 26.47
18.5 188.5 26.57
18.5 189.5 26.6
18.5 190.5 26.6
18.5 191.5 26.58
18.5 192.5 26.5
18.5 193.5 26.46
18.5 194.5 26.42
18.5 195.5 26.35
18.5 196.5 26.25
18.5 197.5 26.11
18.5 198.5 25.97
18.5 199.5 25.84
18.5 200.5 25.74
18.5 201.5 25.56
18.5 202.5 25.37
18.5 203.5 25.21
18.5 204.5 25.12
18.5 205.5 24.96
18.5 206.5 24.8
18.5 207.5 24.66
18.5 208.5 24.52
18.5 209.5 24.42
17.5 180.5 26.83
17.5 181.5 26.75
17.5 182.5 26.66
17.5 183.5 26.58
17.5 184.5 26.52
17.5 185.5 26.55
17.5 186.5 26.61
17.5 187.5 26.7
17.5 188.5 26.81
17.5 189.5 26.83
17.5 190.5 26.8
17.5 191.5 26.74
17.5 192.5 26.57
17.5 193.5 26.49
17.5 194.5 26.43
17.5 195.5 26.35
17.5 196.5 26.22
17.5 197.5 26.04
17.5 198.5 25.86
17.5 199.5 25.68
17.5 200.5 25.56
17.5 201.5 25.43
17.5 202.5 25.32
17.5 203.5 25.25
17.5 204.5 25.2
17.5 205.5 25.09
17.5 206.5 24.96
17.5 207.5 24.83
17.5 208.5 24.68
17.5 209.5 24.57
16.5 180.5 26.94
16.5 181.5 26.88
16.5 182.5 26.82
16.5 183.5 26.76
16.5 184.5 26.74
16.5 185.5 26.77
16.5 186.5 26.83
16.5 187.5 26.91
16.5 188.5 26.99
16.5 189.5 26.98
16.5 190.5 26.92
16.5 191.5 26.82
16.5 192.5 26.6
16.5 193.5 26.5
16.5 194.5 26.43
16.5 195.5 26.36
16.5 196.5 26.24
16.5 197.5 26.08
16.5 198.5 25.91
16.5 199.5 25.73
16.5 200.5 25.59
16.5 201.5 25.49
16.5 202.5 25.43
16.5 203.5 25.39
16.5 204.5 25.33
16.5 205.5 25.23
16.5 206.5 25.12
16.5 207.5 25.02
16.5 208.5 24.88
16.5 209.5 24.78
15.5 180.5 27.07
15.5 181.5 27.06
15.5 182.5 27.03
15.5 183.5 27.01
15.5 184.5 27.04
15.5 185.5 27.05
15.5 186.5 27.07
15.5 187.5 27.09
15.5 188.5 27.12
15.5 189.5 27.08
15.5 190.5 27.01
15.5 191.5 26.9
15.5 192.5 26.7
15.5 193.5 26.59
15.5 194.5 26.51
15.5 195.5 26.44
15.5 196.5 26.35
15.5 197.5 26.25
15.5 198.5 26.12
15.5 199.5 25.98
15.5 200.5 25.83
15.5 201.5 25.72
15.5 202.5 25.64
15.5 203.5 25.57
15.5 204.5 25.5
15.5 205.5 25.4
15.5 206.5 25.32
15.5 207.5 25.27
15.5 208.5 25.17
15.5 209.5 25.08
14.5 180.5 27.22
14.5 181.5 27.23
14.5 182.5 27.23
14.5 183.5 27.23
14.5 184.5 27.29
14.5 185.5 27.28
14.5 186.5 27.26
14.5 187.5 27.25
14.5 188.5 27.23
14.5 189.5 27.17
14.5 190.5 27.09
14.5 191.5 26.98
14.5 192.5 26.8
14.5 193.5 26.7
14.5 194.5 26.61
14.5 195.5 26.56
14.5 196.5 26.47
14.5 197.5 26.41
14.5 198.5 26.33
14.5 199.5 26.23
14.5 200.5 26.06
14.5 201.5 25.97
14.5 202.5 25.9
14.5 203.5 25.81
14.5 204.5 25.75
14.5 205.5 25.68
14.5 206.5 25.65
14.5 207.5 25.67
14.5 208.5 25.67
14.5 209.5 25.59
13.5 180.5 27.41
13.5 181.5 27.42
13.5 182.5 27.41
13.5 183.5 27.42
13.5 184.5 27.47
13.5 185.5 27.43
13.5 186.5 27.38
13.5 187.5 27.34
13.5 188.5 27.28
13.5 189.5 27.21
13.5 190.5 27.13
13.5 191.5 27.03
13.5 192.5 26.86
13.5 193.5 26.78
13.5 194.5 26.71
13.5 195.5 26.67
13.5 196.5 26.58
13.5 197.5 26.54
13.5 198.5 26.51
13.5 199.5 26.45
13.5 200.5 26.29
13.5 201.5 26.23
13.5 202.5 26.18
13.5 203.5 26.1
13.5 204.5 26.04
13.5 205.5 26.01
13.5 206.5 26.03
13.5 207.5 26.1
13.5 208.5 26.19
13.5 209.5 26.11
12.5 180.5 27.61
12.5 181.5 27.59
12.5 182.5 27.58
12.5 183.5 27.57
12.5 184.5 27.58
12.5 185.5 27.52
12.5 186.5 27.44
12.5 187.5 27.38
12.5 188.5 27.3
12.5 189.5 27.23
12.5 190.5 27.16
12.5 191.5 27.08
12.5 192.5 26.95
12.5 193.5 26.89
12.5 194.5 26.85
12.5 195.5 26.81
12.5 196.5 26.75
12.5 197.5 26.73
12.5 198.5 26.72
12.5 199.5 26.69
12.5 200.5 26.59
12.5 201.5 26.56
12.5 202.5 26.52
12.5 203.5 26.46
12.5 204.5 26.4
12.5 205.5 26.4
12.5 206.5 26.44
12.5 207.5 26.52
12.5 208.5 26.62
12.5 209.5 26.53
11.5 180.5 27.78
11.5 181.5 27.76
11.5 182.5 27.75
11.5 183.5 27.74
11.5 184.5 27.7
11.5 185.5 27.62
11.5 186.5 27.54
11.5 187.5 27.48
11.5 188.5 27.43
11.5 189.5 27.39
11.5 190.5 27.34
11.5 191.5 27.29
11.5 192.5 27.2
11.5 193.5 27.15
11.5 194.5 27.11
11.5 195.5 27.06
11.5 196.5 27.03
11.5 197.5 27.01
11.5 198.5 27.01
11.5 199.5 27.01
11.5 200.5 27.04
11.5 201.5 27.02
11.5 202.5 26.97
11.5 203.5 26.88
11.5 204.5 26.8
11.5 205.5 26.78
11.5 206.5 26.83
11.5 207.5 26.9
11.5 208.5 26.94
11.5 209.5 26.85
10.5 180.5 27.9
10.5 181.5 27.88
10.5 182.5 27.87
10.5 183.5 27.85
10.5 184.5 27.8
10.5 185.5 27.72
10.5 186.5 27.63
10.5 187.5 27.57
10.5 188.5 27.56
10.5 189.5 27.54
10.5 190.5 27.51
10.5 191.5 27.49
10.5 192.5 27.45
10.5 193.5 27.42
10.5 194.5 27.41
10.5 195.5 27.38
10.5 196.5 27.39
10.5 197.5 27.37
10.5 198.5 27.39
10.5 199.5 27.41
10.5 200.5 27.46
10.5 201.5 27.45
10.5 202.5 27.4
10.5 203.5 27.29
10.5 204.5 27.16
10.5 205.5 27.11
10.5 206.5 27.12
10.5 207.5 27.15
10.5 208.5 27.13
10.5 209.5 27.05
