39.5 180.5 17.96
39.5 181.5 17.91
39.5 182.5 18.01
39.5 183.5 18.1
39.5 184.5 18.16
39.5 185.5 18.33
39.5 186.5 18.59
39.5 187.5 18.78
39.5 188.5 18.79
39.5 189.5 18.88
39.5 190.5 19.03
39.5 191.5 19.16
39.5 192.5 19.07
39.5 193.5 19.1
39.5 194.5 19.14
39.5 195.5 19.18
39.5 196.5 19.12
39.5 197.5 19.39
39.5 198.5 19.71
39.5 199.5 20
39.5 200.5 20.21
39.5 201.5 20.41
39.5 202.5 20.57
39.5 203.5 20.69
39.5 204.5 20.69
39.5 205.5 20.8
39.5 206.5 20.93
39.5 207.5 21.03
39.5 208.5 21
39.5 209.5 20.92
38.5 180.5 19.17
38.5 181.5 19.18
38.5 182.5 19.28
38.5 183.5 19.31
38.5 184.5 19.27
38.5 185.5 19.38
38.5 186.5 19.65
38.5 187.5 19.84
38.5 188.5 19.71
38.5 189.5 19.79
38.5 190.5 19.95
38.5 191.5 20.07
38.5 192.5 19.84
38.5 193.5 19.84
38.5 194.5 19.86
38.5 195.5 19.89
38.5 196.5 19.87
38.5 197.5 20.13
38.5 198.5 20.42
38.5 199.5 20.68
38.5 200.5 20.92
38.5 201.5 21.08
38.5 202.5 21.22
38.5 203.5 21.31
38.5 204.5 21.25
38.5 205.5 21.33
38.5 206.5 21.43
38.5 207.5 21.49
38.5 208.5 21.43
38.5 209.5 21.31
37.5 180.5 20.14
37.5 181.5 20.21
37.5 182.5 20.32
37.5 183.5 20.32
37.5 184.5 20.12
37.5 185.5 20.18
37.5 186.5 20.45
37.5 187.5 20.62
37.5 188.5 20.34
37.5 189.5 20.4
37.5 190.5 20.56
37.5 191.5 20.69
37.5 192.5 20.43
37.5 193.5 20.42
37.5 194.5 20.43
37.5 195.5 20.49
37.5 196.5 20.58
37.5 197.5 20.85
37.5 198.5 21.09
37.5 199.5 21.3
37.5 200.5 21.53
37.5 201.5 21.65
37.5 202.5 21.75
37.5 203.5 21.82
37.5 204.5 21.74
37.5 205.5 21.8
37.5 206.5 21.86
37.5 207.5 21.89
37.5 208.5 21.81
37.5 209.5 21.68
36.5 180.5 20.83
36.5 181.5 20.93
36.5 182.5 21.04
36.5 183.5 21.03
36.5 184.5 20.77
36.5 185.5 20.83
36.5 186.5 21.08
36.5 187.5 21.24
36.5 188.5 20.87
36.5 189.5 20.91
36.5 190.5 21.05
36.5 191.5 21.17
36.5 192.5 20.95
36.5 193.5 20.96
36.5 194.5 20.98
36.5 195.5 21.09
36.5 196.5 21.3
36.5 197.5 21.55
36.5 198.5 21.72
36.5 199.5 21.87
36.5 200.5 22.05
36.5 201.5 22.15
36.5 202.5 22.24
36.5 203.5 22.31
36.5 204.5 22.25
36.5 205.5 22.28
36.5 206.5 22.31
36.5 207.5 22.29
36.5 208.5 22.18
36.5 209.5 22.04
35.5 180.5 21.53
35.5 181.5 21.54
35.5 182.5 21.59
35.5 183.5 21.56
35.5 184.5 21.27
35.5 185.5 21.33
35.5 186.5 21.55
35.5 187.5 21.69
35.5 188.5 21.4
35.5 189.5 21.43
35.5 190.5 21.53
35.5 191.5 21.61
35.5 192.5 21.47
35.5 193.5 21.51
35.5 194.5 21.58
35.5 195.5 21.74
35.5 196.5 22.03
35.5 197.5 22.21
35.5 198.5 22.3
35.5 199.5 22.38
35.5 200.5 22.53
35.5 201.5 22.65
35.5 202.5 22.75
35.5 203.5 22.84
35.5 204.5 22.8
35.5 205.5 22.8
35.5 206.5 22.78
35.5 207.5 22.71
35.5 208.5 22.58
35.5 209.5 22.42
34.5 180.5 22.11
34.5 181.5 22.08
34.5 182.5 22.11
34.5 183.5 22.09
34.5 184.5 21.78
34.5 185.5 21.85
34.5 186.5 22.05
34.5 187.5 22.2
34.5 188.5 22.04
34.5 189.5 22.11
34.5 190.5 22.2
34.5 191.5 22.28
34.5 192.5 22.18
34.5 193.5 22.2
34.5 194.5 22.25
34.5 195.5 22.38
34.5 196.5 22.59
34.5 197.5 22.71
34.5 198.5 22.77
34.5 199.5 22.83
34.5 200.5 22.95
34.5 201.5 23.05
34.5 202.5 23.13
34.5 203.5 23.2
34.5 204.5 23.17
34.5 205.5 23.14
34.5 206.5 23.09
34.5 207.5 23
34.5 208.5 22.85
34.5 209.5 22.67
33.5 180.5 22.85
33.5 181.5 22.81
33.5 182.5 22.82
33.5 183.5 22.79
33.5 184.5 22.44
33.5 185.5 22.48
33.5 186.5 22.64
33.5 187.5 22.78
33.5 188.5 22.76
33.5 189.5 22.85
33.5 190.5 22.95
33.5 191.5 23.02
33.5 192.5 22.96
33.5 193.5 22.95
33.5 194.5 22.95
33.5 195.5 23
33.5 196.5 23.07
33.5 197.5 23.14
33.5 198.5 23.18
33.5 199.5 23.22
33.5 200.5 23.3
33.5 201.5 23.35
33.5 202.5 23.4
33.5 203.5 23.44
33.5 204.5 23.41
33.5 205.5 23.38
33.5 206.5 23.33
33.5 207.5 23.23
33.5 208.5 23.09
33.5 209.5 22.91
32.5 180.5 23.68
32.5 181.5 23.67
32.5 182.5 23.66
32.5 183.5 23.6
32.5 184.5 23.28
32.5 185.5 23.28
32.5 186.5 23.36
32.5 187.5 23.45
32.5 188.5 23.53
32.5 189.5 23.61
32.5 190.5 23.7
32.5 191.5 23.76
32.5 192.5 23.73
32.5 193.5 23.68
32.5 194.5 23.64
32.5 195.5 23.6
32.5 196.5 23.52
32.5 197.5 23.53
32.5 198.5 23.56
32.5 199.5 23.58
32.5 200.5 23.62
32.5 201.5 23.62
32.5 202.5 23.63
32.5 203.5 23.64
32.5 204.5 23.62
32.5 205.5 23.59
32.5 206.5 23.54
32.5 207.5 23.46
32.5 208.5 23.35
32.5 209.5 23.16
31.5 180.5 24.38
31.5 181.5 24.4
31.5 182.5 24.39
31.5 183.5 24.35
31.5 184.5 24.26
31.5 185.5 24.24
31.5 186.5 24.25
31.5 187.5 24.23
31.5 188.5 24.33
31.5 189.5 24.34
31.5 190.5 24.38
31.5 191.5 24.4
31.5 192.5 24.39
31.5 193.5 24.32
31.5 194.5 24.25
31.5 195.5 24.16
31.5 196.5 23.97
31.5 197.5 23.93
31.5 198.5 23.95
31.5 199.5 23.97
31.5 200.5 23.95
31.5 201.5 23.94
31.5 202.5 23.94
31.5 203.5 23.94
31.5 204.5 23.89
31.5 205.5 23.85
31.5 206.5 23.78
31.5 207.5 23.69
31.5 208.5 23.56
31.5 209.5 23.37
30.5 180.5 24.87
30.5 181.5 24.91
30.5 182.5 24.93
30.5 183.5 24.97
30.5 184.5 25.08
30.5 185.5 25.09
30.5 186.5 25.06
30.5 187.5 24.97
30.5 188.5 24.99
30.5 189.5 24.94
30.5 190.5 24.93
30.5 191.5 24.92
30.5 192.5 24.9
30.5 193.5 24.81
30.5 194.5 24.75
30.5 195.5 24.64
30.5 196.5 24.41
30.5 197.5 24.36
30.5 198.5 24.37
30.5 199.5 24.37
30.5 200.5 24.31
30.5 201.5 24.27
30.5 202.5 24.24
30.5 203.5 24.19
30.5 204.5 24.09
30.5 205.5 24.01
30.5 206.5 23.94
30.5 207.5 23.84
30.5 208.5 23.71
30.5 209.5 23.53
29.5 180.5 25.26
29.5 181.5 25.31
29.5 182.5 25.36
29.5 183.5 25.46
29.5 184.5 25.69
29.5 185.5 25.72
29.5 186.5 25.67
29.5 187.5 25.55
29.5 188.5 25.5
29.5 189.5 25.39
29.5 190.5 25.34
29.5 191.5 25.31
29.5 192.5 25.3
29.5 193.5 25.22
29.5 194.5 25.16
29.5 195.5 25.05
29.5 196.5 24.86
29.5 197.5 24.8
29.5 198.5 24.79
29.5 199.5 24.77
29.5 200.5 24.67
29.5 201.5 24.59
29.5 202.5 24.52
29.5 203.5 24.42
29.5 204.5 24.28
29.5 205.5 24.17
29.5 206.5 24.09
29.5 207.5 23.99
29.5 208.5 23.87
29.5 209.5 23.7
28.5 180.5 25.64
28.5 181.5 25.7
28.5 182.5 25.77
28.5 183.5 25.87
28.5 184.5 26.07
28.5 185.5 26.1
28.5 186.5 26.03
28.5 187.5 25.91
28.5 188.5 25.83
28.5 189.5 25.7
28.5 190.5 25.62
28.5 191.5 25.59
28.5 192.5 25.64
28.5 193.5 25.59
28.5 194.5 25.53
28.5 195.5 25.43
28.5 196.5 25.29
28.5 197.5 25.21
28.5 198.5 25.18
28.5 199.5 25.12
28.5 200.5 24.99
28.5 201.5 24.87
28.5 202.5 24.76
28.5 203.5 24.62
28.5 204.5 24.47
28.5 205.5 24.36
28.5 206.5 24.28
28.5 207.5 24.18
28.5 208.5 24.08
28.5 209.5 23.91
27.5 180.5 26.07
27.5 181.5 26.14
27.5 182.5 26.22
27.5 183.5 26.29
27.5 184.5 26.33
27.5 185.5 26.32
27.5 186.5 26.25
27.5 187.5 26.15
27.5 188.5 26.11
27.5 189.5 25.99
27.5 190.5 25.92
27.5 191.5 25.91
27.5 192.5 26.02
27.5 193.5 25.98
27.5 194.5 25.91
27.5 195.5 25.82
27.5 196.5 25.69
27.5 197.5 25.6
27.5 198.5 25.54
27.5 199.5 25.43
27.5 200.5 25.26
27.5 201.5 25.13
27.5 202.5 25.01
27.5 203.5 24.88
27.5 204.5 24.74
27.5 205.5 24.62
27.5 206.5 24.51
27.5 207.5 24.39
27.5 208.5 24.28
27.5 209.5 24.14
26.5 180.5 26.51
26.5 181.5 26.62
26.5 182.5 26.69
26.5 183.5 26.72
26.5 184.5 26.72
26.5 185.5 26.68
26.5 186.5 26.6
26.5 187.5 26.5
26.5 188.5 26.47
26.5 189.5 26.38
26.5 190.5 26.32
26.5 191.5 26.32
26.5 192.5 26.39
26.5 193.5 26.34
26.5 194.5 26.25
26.5 195.5 26.13
26.5 196.5 25.97
26.5 197.5 25.86
26.5 198.5 25.77
26.5 199.5 25.64
26.5 200.5 25.49
26.5 201.5 25.34
26.5 202.5 25.21
26.5 203.5 25.09
26.5 204.5 24.99
26.5 205.5 24.87
26.5 206.5 24.74
26.5 207.5 24.61
26.5 208.5 24.49
26.5 209.5 24.35
25.5 180.5 26.95
25.5 181.5 27.07
25.5 182.5 27.13
25.5 183.5 27.15
25.5 184.5 27.16
25.5 185.5 27.1
25.5 186.5 27.03
25.5 187.5 26.93
25.5 188.5 26.87
25.5 189.5 26.79
25.5 190.5 26.74
25.5 191.5 26.73
25.5 192.5 26.69
25.5 193.5 26.62
25.5 194.5 26.51
25.5 195.5 26.38
25.5 196.5 26.19
25.5 197.5 26.06
25.5 198.5 25.96
25.5 199.5 25.84
25.5 200.5 25.72
25.5 201.5 25.57
25.5 202.5 25.44
25.5 203.5 25.33
25.5 204.5 25.24
25.5 205.5 25.11
25.5 206.5 24.96
25.5 207.5 24.8
25.5 208.5 24.66
25.5 209.5 24.49
24.5 180.5 27.33
24.5 181.5 27.43
24.5 182.5 27.47
24.5 183.5 27.49
24.5 184.5 27.53
24.5 185.5 27.47
24.5 186.5 27.39
24.5 187.5 27.29
24.5 188.5 27.17
24.5 189.5 27.09
24.5 190.5 27.04
24.5 191.5 26.99
24.5 192.5 26.89
24.5 193.5 26.79
24.5 194.5 26.69
24.5 195.5 26.56
24.5 196.5 26.38
24.5 197.5 26.26
24.5 198.5 26.15
24.5 199.5 26.04
24.5 200.5 25.95
24.5 201.5 25.81
24.5 202.5 25.68
24.5 203.5 25.55
24.5 204.5 25.44
24.5 205.5 25.29
24.5 206.5 25.1
24.5 207.5 24.9
24.5 208.5 24.72
24.5 209.5 24.53
23.5 180.5 27.58
23.5 181.5 27.65
23.5 182.5 27.69
23.5 183.5 27.74
23.5 184.5 27.78
23.5 185.5 27.69
23.5 186.5 27.56
23.5 187.5 27.42
23.5 188.5 27.28
23.5 189.5 27.19
23.5 190.5 27.12
23.5 191.5 27.06
23.5 192.5 26.95
23.5 193.5 26.84
23.5 194.5 26.75
23.5 195.5 26.67
23.5 196.5 26.57
23.5 197.5 26.5
23.5 198.5 26.43
23.5 199.5 26.35
23.5 200.5 26.22
23.5 201.5 26.07
23.5 202.5 25.91
23.5 203.5 25.73
23.5 204.5 25.53
23.5 205.5 25.33
23.5 206.5 25.12
23.5 207.5 24.9
23.5 208.5 24.72
23.5 209.5 24.53
22.5 180.5 27.77
22.5 181.5 27.82
22.5 182.5 27.86
22.5 183.5 27.91
22.5 184.5 27.91
22.5 185.5 27.8
22.5 186.5 27.63
22.5 187.5 27.45
22.5 188.5 27.28
22.5 189.5 27.21
22.5 190.5 27.16
22.5 191.5 27.14
22.5 192.5 27.1
22.5 193.5 27.03
22.5 194.5 26.98
22.5 195.5 26.93
22.5 196.5 26.88
22.5 197.5 26.84
22.5 198.5 26.79
22.5 199.5 26.72
22.5 200.5 26.54
22.5 201.5 26.35
22.5 202.5 26.13
22.5 203.5 25.9
22.5 204.5 25.66
22.5 205.5 25.44
22.5 206.5 25.23
22.5 207.5 25.02
22.5 208.5 24.9
22.5 209.5 24.72
21.5 180.5 27.94
21.5 181.5 27.98
21.5 182.5 28.02
21.5 183.5 28.07
21.5 184.5 28.02
21.5 185.5 27.88
21.5 186.5 27.69
21.5 187.5 27.49
21.5 188.5 27.32
21.5 189.5 27.27
21.5 190.5 27.26
21.5 191.5 27.29
21.5 192.5 27.35
21.5 193.5 27.32
21.5 194.5 27.29
21.5 195.5 27.25
21.5 196.5 27.23
21.5 197.5 27.2
21.5 198.5 27.16
21.5 199.5 27.09
21.5 200.5 26.88
21.5 201.5 26.66
21.5 202.5 26.39
21.5 203.5 26.12
21.5 204.5 25.86
21.5 205.5 25.63
21.5 206.5 25.42
21.5 207.5 25.24
21.5 208.5 25.16
21.5 209.5 25
20.5 180.5 28.08
20.5 181.5 28.12
20.5 182.5 28.16
20.5 183.5 28.2
20.5 184.5 28.12
20.5 185.5 27.96
20.5 186.5 27.77
20.5 187.5 27.56
20.5 188.5 27.44
20.5 189.5 27.42
20.5 190.5 27.43
20.5 191.5 27.5
20.5 192.5 27.61
20.5 193.5 27.61
20.5 194.5 27.58
20.5 195.5 27.53
20.5 196.5 27.49
20.5 197.5 27.45
20.5 198.5 27.41
20.5 199.5 27.34
20.5 200.5 27.15
20.5 201.5 26.92
20.5 202.5 26.64
20.5 203.5 26.34
20.5 204.5 26.08
20.5 205.5 25.85
20.5 206.5 25.65
20.5 207.5 25.5
20.5 208.5 25.44
20.5 209.5 25.31
19.5 180.5 28.22
19.5 181.5 28.25
19.5 182.5 28.26
19.5 183.5 28.29
19.5 184.5 28.24
19.5 185.5 28.09
19.5 186.5 27.9
19.5 187.5 27.72
19.5 188.5 27.62
19.5 189.5 27.62
19.5 190.5 27.64
19.5 191.5 27.69
19.5 192.5 27.73
19.5 193.5 27.72
19.5 194.5 27.68
19.5 195.5 27.63
19.5 196.5 27.55
19.5 197.5 27.49
19.5 198.5 27.44
19.5 199.5 27.38
19.5 200.5 27.27
19.5 201.5 27.06
19.5 202.5 26.79
19.5 203.5 26.51
19.5 204.5 26.28
19.5 205.5 26.07
19.5 206.5 25.9
19.5 207.5 25.78
19.5 208.5 25.67
19.5 209.5 25.53
18.5 180.5 28.38
18.5 181.5 28.37
18.5 182.5 28.36
18.5 183.5 28.37
18.5 184.5 28.35
18.5 185.5 28.23
18.5 186.5 28.07
18.5 187.5 27.92
18.5 188.5 27.82
18.5 189.5 27.79
18.5 190.5 27.78
18.5 191.5 27.78
18.5 192.5 27.76
18.5 193.5 27.71
18.5 194.5 27.65
18.5 195.5 27.56
18.5 196.5 27.49
18.5 197.5 27.41
18.5 198.5 27.34
18.5 199.5 27.27
18.5 200.5 27.21
18.5 201.5 27.04
18.5 202.5 26.83
18.5 203.5 26.6
18.5 204.5 26.42
18.5 205.5 26.24
18.5 206.5 26.09
18.5 207.5 25.99
18.5 208.5 25.82
18.5 209.5 25.67
17.5 180.5 28.5
17.5 181.5 28.47
17.5 182.5 28.43
17.5 183.5 28.41
17.5 184.5 28.42
17.5 185.5 28.34
17.5 186.5 28.23
17.5 187.5 28.12
17.5 188.5 27.98
17.5 189.5 27.92
17.5 190.5 27.88
17.5 191.5 27.83
17.5 192.5 27.74
17.5 193.5 27.66
17.5 194.5 27.56
17.5 195.5 27.46
17.5 196.5 27.41
17.5 197.5 27.32
17.5 198.5 27.24
17.5 199.5 27.18
17.5 200.5 27.11
17.5 201.5 26.98
17.5 202.5 26.82
17.5 203.5 26.66
17.5 204.5 26.53
17.5 205.5 26.4
17.5 206.5 26.28
17.5 207.5 26.19
17.5 208.5 25.99
17.5 209.5 25.82
16.5 180.5 28.57
16.5 181.5 28.53
16.5 182.5 28.47
16.5 183.5 28.44
16.5 184.5 28.46
16.5 185.5 28.42
16.5 186.5 28.35
16.5 187.5 28.26
16.5 188.5 28.12
16.5 189.5 28.03
16.5 190.5 27.95
16.5 191.5 27.86
16.5 192.5 27.73
16.5 193.5 27.64
16.5 194.5 27.53
16.5 195.5 27.42
16.5 196.5 27.38
16.5 197.5 27.3
16.5 198.5 27.23
16.5 199.5 27.17
16.5 200.5 27.09
16.5 201.5 26.99
16.5 202.5 26.87
16.5 203.5 26.75
16.5 204.5 26.65
16.5 205.5 26.57
16.5 206.5 26.49
16.5 207.5 26.42
16.5 208.5 26.25
16.5 209.5 26.1
15.5 180.5 28.61
15.5 181.5 28.56
15.5 182.5 28.49
15.5 183.5 28.45
15.5 184.5 28.48
15.5 185.5 28.45
15.5 186.5 28.41
15.5 187.5 28.36
15.5 188.5 28.23
15.5 189.5 28.13
15.5 190.5 28.02
15.5 191.5 27.9
15.5 192.5 27.77
15.5 193.5 27.69
15.5 194.5 27.59
15.5 195.5 27.48
15.5 196.5 27.42
15.5 197.5 27.35
15.5 198.5 27.31
15.5 199.5 27.29
15.5 200.5 27.23
15.5 201.5 27.15
15.5 202.5 27.06
15.5 203.5 26.97
15.5 204.5 26.86
15.5 205.5 26.8
15.5 206.5 26.74
15.5 207.5 26.67
15.5 208.5 26.56
15.5 209.5 26.45
14.5 180.5 28.66
14.5 181.5 28.61
14.5 182.5 28.55
14.5 183.5 28.5
14.5 184.5 28.52
14.5 185.5 28.49
14.5 186.5 28.45
14.5 187.5 28.4
14.5 188.5 28.31
14.5 189.5 28.21
14.5 190.5 28.11
14.5 191.5 28
14.5 192.5 27.89
14.5 193.5 27.8
14.5 194.5 27.7
14.5 195.5 27.6
14.5 196.5 27.54
14.5 197.5 27.49
14.5 198.5 27.46
14.5 199.5 27.46
14.5 200.5 27.42
14.5 201.5 27.36
14.5 202.5 27.29
14.5 203.5 27.21
14.5 204.5 27.08
14.5 205.5 27.01
14.5 206.5 26.95
14.5 207.5 26.89
14.5 208.5 26.86
14.5 209.5 26.82
13.5 180.5 28.77
13.5 181.5 28.73
13.5 182.5 28.67
13.5 183.5 28.62
13.5 184.5 28.61
13.5 185.5 28.57
13.5 186.5 28.52
13.5 187.5 28.46
13.5 188.5 28.39
13.5 189.5 28.3
13.5 190.5 28.22
13.5 191.5 28.13
13.5 192.5 28.03
13.5 193.5 27.94
13.5 194.5 27.85
13.5 195.5 27.76
13.5 196.5 27.71
13.5 197.5 27.67
13.5 198.5 27.65
13.5 199.5 27.66
13.5 200.5 27.62
13.5 201.5 27.58
13.5 202.5 27.51
13.5 203.5 27.44
13.5 204.5 27.29
13.5 205.5 27.22
13.5 206.5 27.15
13.5 207.5 27.08
13.5 208.5 27.11
13.5 209.5 27.13
12.5 180.5 28.93
12.5 181.5 28.91
12.5 182.5 28.86
12.5 183.5 28.81
12.5 184.5 28.75
12.5 185.5 28.69
12.5 186.5 28.62
12.5 187.5 28.55
12.5 188.5 28.46
12.5 189.5 28.4
12.5 190.5 28.34
12.5 191.5 28.26
12.5 192.5 28.16
12.5 193.5 28.07
12.5 194.5 27.99
12.5 195.5 27.92
12.5 196.5 27.87
12.5 197.5 27.83
12.5 198.5 27.81
12.5 199.5 27.81
12.5 200.5 27.77
12.5 201.5 27.75
12.5 202.5 27.71
12.5 203.5 27.64
12.5 204.5 27.51
12.5 205.5 27.43
12.5 206.5 27.36
12.5 207.5 27.29
12.5 208.5 27.33
12.5 209.5 27.36
11.5 180.5 29.08
11.5 181.5 29.07
11.5 182.5 29.03
11.5 183.5 28.99
11.5 184.5 28.92
11.5 185.5 28.85
11.5 186.5 28.77
11.5 187.5 28.68
11.5 188.5 28.56
11.5 189.5 28.48
11.5 190.5 28.41
11.5 191.5 28.31
11.5 192.5 28.24
11.5 193.5 28.15
11.5 194.5 28.08
11.5 195.5 28.03
11.5 196.5 28.01
11.5 197.5 27.97
11.5 198.5 27.95
11.5 199.5 27.96
11.5 200.5 27.95
11.5 201.5 27.94
11.5 202.5 27.91
11.5 203.5 27.86
11.5 204.5 27.78
11.5 205.5 27.71
11.5 206.5 27.62
11.5 207.5 27.54
11.5 208.5 27.53
11.5 209.5 27.54
10.5 180.5 29.23
10.5 181.5 29.24
10.5 182.5 29.22
10.5 183.5 29.2
10.5 184.5 29.14
10.5 185.5 29.08
10.5 186.5 28.99
10.5 187.5 28.88
10.5 188.5 28.74
10.5 189.5 28.65
10.5 190.5 28.57
10.5 191.5 28.46
10.5 192.5 28.39
10.5 193.5 28.3
10.5 194.5 28.24
10.5 195.5 28.21
10.5 196.5 28.24
10.5 197.5 28.22
10.5 198.5 28.21
10.5 199.5 28.24
10.5 200.5 28.25
10.5 201.5 28.25
10.5 202.5 28.22
10.5 203.5 28.17
10.5 204.5 28.11
10.5 205.5 28.03
10.5 206.5 27.95
10.5 207.5 27.85
10.5 208.5 27.79
10.5 209.5 27.77
