39.5 180.5 20.03
39.5 181.5 19.98
39.5 182.5 20.06
39.5 183.5 20.14
39.5 184.5 19.77
39.5 185.5 19.78
39.5 186.5 19.86
39.5 187.5 19.92
39.5 188.5 19.48
39.5 189.5 19.42
39.5 190.5 19.38
39.5 191.5 19.38
39.5 192.5 19.24
39.5 193.5 19.25
39.5 194.5 19.28
39.5 195.5 19.33
39.5 196.5 19.48
39.5 197.5 19.8
39.5 198.5 20.13
39.5 199.5 20.39
39.5 200.5 20.6
39.5 201.5 20.68
39.5 202.5 20.8
39.5 203.5 20.91
39.5 204.5 20.94
39.5 205.5 21.09
39.5 206.5 21.26
39.5 207.5 21.38
39.5 208.5 21.35
39.5 209.5 21.22
38.5 180.5 21.19
38.5 181.5 21.15
38.5 182.5 21.23
38.5 183.5 21.27
38.5 184.5 20.73
38.5 185.5 20.71
38.5 186.5 20.8
38.5 187.5 20.89
38.5 188.5 20.45
38.5 189.5 20.36
38.5 190.5 20.3
38.5 191.5 20.28
38.5 192.5 20.06
38.5 193.5 20.04
38.5 194.5 20.01
38.5 195.5 20.01
38.5 196.5 20.23
38.5 197.5 20.54
38.5 198.5 20.84
38.5 199.5 21.06
38.5 200.5 21.25
38.5 201.5 21.29
38.5 202.5 21.4
38.5 203.5 21.5
38.5 204.5 21.52
38.5 205.5 21.66
38.5 206.5 21.81
38.5 207.5 21.91
38.5 208.5 21.88
38.5 209.5 21.71
37.5 180.5 22.07
37.5 181.5 22.05
37.5 182.5 22.14
37.5 183.5 22.15
37.5 184.5 21.56
37.5 185.5 21.53
37.5 186.5 21.63
37.5 187.5 21.74
37.5 188.5 21.27
37.5 189.5 21.15
37.5 190.5 21.04
37.5 191.5 20.98
37.5 192.5 20.73
37.5 193.5 20.68
37.5 194.5 20.6
37.5 195.5 20.59
37.5 196.5 20.91
37.5 197.5 21.21
37.5 198.5 21.46
37.5 199.5 21.65
37.5 200.5 21.83
37.5 201.5 21.85
37.5 202.5 21.93
37.5 203.5 22.03
37.5 204.5 22.07
37.5 205.5 22.19
37.5 206.5 22.32
37.5 207.5 22.4
37.5 208.5 22.37
37.5 209.5 22.18
36.5 180.5 22.65
36.5 181.5 22.66
36.5 182.5 22.76
36.5 183.5 22.78
36.5 184.5 22.31
36.5 185.5 22.31
36.5 186.5 22.44
36.5 187.5 22.57
36.5 188.5 22.09
36.5 189.5 21.93
36.5 190.5 21.77
36.5 191.5 21.67
36.5 192.5 21.35
36.5 193.5 21.28
36.5 194.5 21.16
36.5 195.5 21.14
36.5 196.5 21.58
36.5 197.5 21.85
36.5 198.5 22.05
36.5 199.5 22.21
36.5 200.5 22.38
36.5 201.5 22.4
36.5 202.5 22.49
36.5 203.5 22.59
36.5 204.5 22.66
36.5 205.5 22.75
36.5 206.5 22.85
36.5 207.5 22.88
36.5 208.5 22.85
36.5 209.5 22.65
35.5 180.5 23.07
35.5 181.5 23.08
35.5 182.5 23.16
35.5 183.5 23.18
35.5 184.5 22.92
35.5 185.5 22.97
35.5 186.5 23.12
35.5 187.5 23.29
35.5 188.5 22.8
35.5 189.5 22.68
35.5 190.5 22.52
35.5 191.5 22.42
35.5 192.5 22.04
35.5 193.5 21.96
35.5 194.5 21.84
35.5 195.5 21.82
35.5 196.5 22.27
35.5 197.5 22.47
35.5 198.5 22.61
35.5 199.5 22.73
35.5 200.5 22.94
35.5 201.5 23.01
35.5 202.5 23.13
35.5 203.5 23.25
35.5 204.5 23.32
35.5 205.5 23.38
35.5 206.5 23.43
35.5 207.5 23.42
35.5 208.5 23.34
35.5 209.5 23.14
34.5 180.5 23.53
34.5 181.5 23.55
34.5 182.5 23.62
34.5 183.5 23.66
34.5 184.5 23.56
34.5 185.5 23.63
34.5 186.5 23.77
34.5 187.5 23.93
34.5 188.5 23.63
34.5 189.5 23.53
34.5 190.5 23.37
34.5 191.5 23.25
34.5 192.5 22.9
34.5 193.5 22.78
34.5 194.5 22.65
34.5 195.5 22.61
34.5 196.5 22.94
34.5 197.5 23.1
34.5 198.5 23.21
34.5 199.5 23.31
34.5 200.5 23.49
34.5 201.5 23.56
34.5 202.5 23.68
34.5 203.5 23.8
34.5 204.5 23.83
34.5 205.5 23.86
34.5 206.5 23.86
34.5 207.5 23.81
34.5 208.5 23.67
34.5 209.5 23.46
33.5 180.5 24.21
33.5 181.5 24.21
33.5 182.5 24.26
33.5 183.5 24.29
33.5 184.5 24.23
33.5 185.5 24.27
33.5 186.5 24.38
33.5 187.5 24.51
33.5 188.5 24.4
33.5 189.5 24.33
33.5 190.5 24.18
33.5 191.5 24.06
33.5 192.5 23.76
33.5 193.5 23.63
33.5 194.5 23.49
33.5 195.5 23.42
33.5 196.5 23.58
33.5 197.5 23.69
33.5 198.5 23.78
33.5 199.5 23.85
33.5 200.5 23.95
33.5 201.5 24
33.5 202.5 24.09
33.5 203.5 24.2
33.5 204.5 24.22
33.5 205.5 24.23
33.5 206.5 24.2
33.5 207.5 24.12
33.5 208.5 23.96
33.5 209.5 23.74
32.5 180.5 25.08
32.5 181.5 25.07
32.5 182.5 25.08
32.5 183.5 25.07
32.5 184.5 24.95
32.5 185.5 24.96
32.5 186.5 25.02
32.5 187.5 25.09
32.5 188.5 25.1
32.5 189.5 25.03
32.5 190.5 24.91
32.5 191.5 24.8
32.5 192.5 24.54
32.5 193.5 24.41
32.5 194.5 24.29
32.5 195.5 24.19
32.5 196.5 24.18
32.5 197.5 24.24
32.5 198.5 24.3
32.5 199.5 24.34
32.5 200.5 24.37
32.5 201.5 24.38
32.5 202.5 24.44
32.5 203.5 24.51
32.5 204.5 24.53
32.5 205.5 24.52
32.5 206.5 24.47
32.5 207.5 24.39
32.5 208.5 24.22
32.5 209.5 24.02
31.5 180.5 25.86
31.5 181.5 25.85
31.5 182.5 25.83
31.5 183.5 25.79
31.5 184.5 25.66
31.5 185.5 25.66
31.5 186.5 25.69
31.5 187.5 25.7
31.5 188.5 25.65
31.5 189.5 25.56
31.5 190.5 25.48
31.5 191.5 25.41
31.5 192.5 25.13
31.5 193.5 25.04
31.5 194.5 24.94
31.5 195.5 24.84
31.5 196.5 24.69
31.5 197.5 24.69
31.5 198.5 24.72
31.5 199.5 24.74
31.5 200.5 24.75
31.5 201.5 24.74
31.5 202.5 24.77
31.5 203.5 24.81
31.5 204.5 24.81
31.5 205.5 24.74
31.5 206.5 24.65
31.5 207.5 24.53
31.5 208.5 24.38
31.5 209.5 24.18
30.5 180.5 26.34
30.5 181.5 26.35
30.5 182.5 26.33
30.5 183.5 26.33
30.5 184.5 26.39
30.5 185.5 26.41
30.5 186.5 26.4
30.5 187.5 26.35
30.5 188.5 26.21
30.5 189.5 26.05
30.5 190.5 25.92
30.5 191.5 25.8
30.5 192.5 25.55
30.5 193.5 25.48
30.5 194.5 25.41
30.5 195.5 25.32
30.5 196.5 25.16
30.5 197.5 25.15
30.5 198.5 25.18
30.5 199.5 25.21
30.5 200.5 25.14
30.5 201.5 25.12
30.5 202.5 25.12
30.5 203.5 25.09
30.5 204.5 24.96
30.5 205.5 24.86
30.5 206.5 24.76
30.5 207.5 24.63
30.5 208.5 24.42
30.5 209.5 24.25
29.5 180.5 26.63
29.5 181.5 26.66
29.5 182.5 26.68
29.5 183.5 26.73
29.5 184.5 26.93
29.5 185.5 26.95
29.5 186.5 26.91
29.5 187.5 26.82
29.5 188.5 26.63
29.5 189.5 26.42
29.5 190.5 26.23
29.5 191.5 26.07
29.5 192.5 25.88
29.5 193.5 25.82
29.5 194.5 25.77
29.5 195.5 25.7
29.5 196.5 25.57
29.5 197.5 25.56
29.5 198.5 25.58
29.5 199.5 25.6
29.5 200.5 25.47
29.5 201.5 25.42
29.5 202.5 25.38
29.5 203.5 25.29
29.5 204.5 25.07
29.5 205.5 24.93
29.5 206.5 24.82
29.5 207.5 24.69
29.5 208.5 24.46
29.5 209.5 24.31
28.5 180.5 26.84
28.5 181.5 26.91
28.5 182.5 26.97
28.5 183.5 27.05
28.5 184.5 27.26
28.5 185.5 27.26
28.5 186.5 27.19
28.5 187.5 27.07
28.5 188.5 26.87
28.5 189.5 26.63
28.5 190.5 26.43
28.5 191.5 26.26
28.5 192.5 26.15
28.5 193.5 26.11
28.5 194.5 26.07
28.5 195.5 26.01
28.5 196.5 25.91
28.5 197.5 25.88
28.5 198.5 25.89
28.5 199.5 25.87
28.5 200.5 25.7
28.5 201.5 25.61
28.5 202.5 25.52
28.5 203.5 25.4
28.5 204.5 25.13
28.5 205.5 24.99
28.5 206.5 24.88
28.5 207.5 24.75
28.5 208.5 24.55
28.5 209.5 24.42
27.5 180.5 27.07
27.5 181.5 27.18
27.5 182.5 27.24
27.5 183.5 27.31
27.5 184.5 27.37
27.5 185.5 27.34
27.5 186.5 27.24
27.5 187.5 27.13
27.5 188.5 26.96
27.5 189.5 26.75
27.5 190.5 26.57
27.5 191.5 26.44
27.5 192.5 26.4
27.5 193.5 26.37
27.5 194.5 26.3
27.5 195.5 26.24
27.5 196.5 26.18
27.5 197.5 26.12
27.5 198.5 26.09
27.5 199.5 26.02
27.5 200.5 25.82
27.5 201.5 25.68
27.5 202.5 25.57
27.5 203.5 25.43
27.5 204.5 25.21
27.5 205.5 25.07
27.5 206.5 24.96
27.5 207.5 24.83
27.5 208.5 24.71
27.5 209.5 24.61
26.5 180.5 27.35
26.5 181.5 27.47
26.5 182.5 27.53
26.5 183.5 27.56
26.5 184.5 27.56
26.5 185.5 27.48
26.5 186.5 27.38
26.5 187.5 27.26
26.5 188.5 27.11
26.5 189.5 26.94
26.5 190.5 26.79
26.5 191.5 26.68
26.5 192.5 26.66
26.5 193.5 26.62
26.5 194.5 26.54
26.5 195.5 26.46
26.5 196.5 26.35
26.5 197.5 26.27
26.5 198.5 26.22
26.5 199.5 26.13
26.5 200.5 25.93
26.5 201.5 25.79
26.5 202.5 25.66
26.5 203.5 25.53
26.5 204.5 25.37
26.5 205.5 25.25
26.5 206.5 25.14
26.5 207.5 25.02
26.5 208.5 24.94
26.5 209.5 24.83
25.5 180.5 27.63
25.5 181.5 27.74
25.5 182.5 27.77
25.5 183.5 27.77
25.5 184.5 27.73
25.5 185.5 27.64
25.5 186.5 27.55
25.5 187.5 27.43
25.5 188.5 27.29
25.5 189.5 27.15
25.5 190.5 27.03
25.5 191.5 26.94
25.5 192.5 26.89
25.5 193.5 26.83
25.5 194.5 26.75
25.5 195.5 26.66
25.5 196.5 26.51
25.5 197.5 26.42
25.5 198.5 26.34
25.5 199.5 26.26
25.5 200.5 26.09
25.5 201.5 25.95
25.5 202.5 25.82
25.5 203.5 25.69
25.5 204.5 25.58
25.5 205.5 25.48
25.5 206.5 25.37
25.5 207.5 25.23
25.5 208.5 25.14
25.5 209.5 24.99
24.5 180.5 27.87
24.5 181.5 27.94
24.5 182.5 27.94
24.5 183.5 27.91
24.5 184.5 27.87
24.5 185.5 27.77
24.5 186.5 27.68
24.5 187.5 27.57
24.5 188.5 27.43
24.5 189.5 27.31
24.5 190.5 27.21
24.5 191.5 27.13
24.5 192.5 27.05
24.5 193.5 26.98
24.5 194.5 26.91
24.5 195.5 26.83
24.5 196.5 26.69
24.5 197.5 26.58
24.5 198.5 26.49
24.5 199.5 26.4
24.5 200.5 26.29
24.5 201.5 26.16
24.5 202.5 26.03
24.5 203.5 25.9
24.5 204.5 25.8
24.5 205.5 25.69
24.5 206.5 25.55
24.5 207.5 25.38
24.5 208.5 25.24
24.5 209.5 25.05
23.5 180.5 28
23.5 181.5 28.01
23.5 182.5 27.99
23.5 183.5 27.95
23.5 184.5 27.94
23.5 185.5 27.86
23.5 186.5 27.75
23.5 187.5 27.63
23.5 188.5 27.46
23.5 189.5 27.35
23.5 190.5 27.27
23.5 191.5 27.21
23.5 192.5 27.1
23.5 193.5 27.05
23.5 194.5 27.03
23.5 195.5 27
23.5 196.5 26.92
23.5 197.5 26.83
23.5 198.5 26.73
23.5 199.5 26.64
23.5 200.5 26.55
23.5 201.5 26.43
23.5 202.5 26.28
23.5 203.5 26.11
23.5 204.5 25.97
23.5 205.5 25.81
23.5 206.5 25.63
23.5 207.5 25.44
23.5 208.5 25.21
23.5 209.5 25
22.5 180.5 28.08
22.5 181.5 28.07
22.5 182.5 28.03
22.5 183.5 28
22.5 184.5 28
22.5 185.5 27.92
22.5 186.5 27.81
22.5 187.5 27.66
22.5 188.5 27.52
22.5 189.5 27.42
22.5 190.5 27.36
22.5 191.5 27.32
22.5 192.5 27.3
22.5 193.5 27.3
22.5 194.5 27.31
22.5 195.5 27.32
22.5 196.5 27.26
22.5 197.5 27.17
22.5 198.5 27.07
22.5 199.5 26.97
22.5 200.5 26.84
22.5 201.5 26.69
22.5 202.5 26.51
22.5 203.5 26.31
22.5 204.5 26.14
22.5 205.5 25.95
22.5 206.5 25.74
22.5 207.5 25.55
22.5 208.5 25.34
22.5 209.5 25.14
21.5 180.5 28.18
21.5 181.5 28.17
21.5 182.5 28.13
21.5 183.5 28.09
21.5 184.5 28.1
21.5 185.5 28.01
21.5 186.5 27.9
21.5 187.5 27.75
21.5 188.5 27.64
21.5 189.5 27.55
21.5 190.5 27.51
21.5 191.5 27.51
21.5 192.5 27.6
21.5 193.5 27.64
21.5 194.5 27.68
21.5 195.5 27.69
21.5 196.5 27.64
21.5 197.5 27.56
21.5 198.5 27.46
21.5 199.5 27.35
21.5 200.5 27.17
21.5 201.5 26.99
21.5 202.5 26.76
21.5 203.5 26.51
21.5 204.5 26.31
21.5 205.5 26.09
21.5 206.5 25.89
21.5 207.5 25.71
21.5 208.5 25.53
21.5 209.5 25.37
20.5 180.5 28.31
20.5 181.5 28.3
20.5 182.5 28.26
20.5 183.5 28.23
20.5 184.5 28.22
20.5 185.5 28.15
20.5 186.5 28.04
20.5 187.5 27.9
20.5 188.5 27.81
20.5 189.5 27.76
20.5 190.5 27.73
20.5 191.5 27.76
20.5 192.5 27.91
20.5 193.5 27.97
20.5 194.5 28.01
20.5 195.5 28.01
20.5 196.5 27.94
20.5 197.5 27.87
20.5 198.5 27.75
20.5 199.5 27.64
20.5 200.5 27.43
20.5 201.5 27.22
20.5 202.5 26.97
20.5 203.5 26.68
20.5 204.5 26.44
20.5 205.5 26.22
20.5 206.5 26.02
20.5 207.5 25.87
20.5 208.5 25.76
20.5 209.5 25.64
19.5 180.5 28.46
19.5 181.5 28.45
19.5 182.5 28.4
19.5 183.5 28.36
19.5 184.5 28.36
19.5 185.5 28.29
19.5 186.5 28.2
19.5 187.5 28.08
19.5 188.5 28.03
19.5 189.5 28.01
19.5 190.5 28
19.5 191.5 28.02
19.5 192.5 28.15
19.5 193.5 28.19
19.5 194.5 28.19
19.5 195.5 28.15
19.5 196.5 28.04
19.5 197.5 27.93
19.5 198.5 27.8
19.5 199.5 27.68
19.5 200.5 27.5
19.5 201.5 27.31
19.5 202.5 27.06
19.5 203.5 26.78
19.5 204.5 26.52
19.5 205.5 26.32
19.5 206.5 26.16
19.5 207.5 26.05
19.5 208.5 26.03
19.5 209.5 25.93
18.5 180.5 28.6
18.5 181.5 28.57
18.5 182.5 28.51
18.5 183.5 28.46
18.5 184.5 28.47
18.5 185.5 28.41
18.5 186.5 28.33
18.5 187.5 28.24
18.5 188.5 28.2
18.5 189.5 28.18
18.5 190.5 28.17
18.5 191.5 28.16
18.5 192.5 28.22
18.5 193.5 28.2
18.5 194.5 28.16
18.5 195.5 28.07
18.5 196.5 27.93
18.5 197.5 27.79
18.5 198.5 27.65
18.5 199.5 27.53
18.5 200.5 27.4
18.5 201.5 27.24
18.5 202.5 27.04
18.5 203.5 26.8
18.5 204.5 26.6
18.5 205.5 26.44
18.5 206.5 26.31
18.5 207.5 26.24
18.5 208.5 26.22
18.5 209.5 26.11
17.5 180.5 28.68
17.5 181.5 28.64
17.5 182.5 28.56
17.5 183.5 28.5
17.5 184.5 28.5
17.5 185.5 28.46
17.5 186.5 28.4
17.5 187.5 28.33
17.5 188.5 28.28
17.5 189.5 28.25
17.5 190.5 28.23
17.5 191.5 28.2
17.5 192.5 28.19
17.5 193.5 28.12
17.5 194.5 28.02
17.5 195.5 27.89
17.5 196.5 27.75
17.5 197.5 27.6
17.5 198.5 27.45
17.5 199.5 27.33
17.5 200.5 27.24
17.5 201.5 27.12
17.5 202.5 26.97
17.5 203.5 26.81
17.5 204.5 26.68
17.5 205.5 26.58
17.5 206.5 26.5
17.5 207.5 26.47
17.5 208.5 26.4
17.5 209.5 26.28
16.5 180.5 28.7
16.5 181.5 28.65
16.5 182.5 28.57
16.5 183.5 28.51
16.5 184.5 28.5
16.5 185.5 28.47
16.5 186.5 28.42
16.5 187.5 28.36
16.5 188.5 28.29
16.5 189.5 28.24
16.5 190.5 28.2
16.5 191.5 28.15
16.5 192.5 28.09
16.5 193.5 27.99
16.5 194.5 27.88
16.5 195.5 27.74
16.5 196.5 27.61
16.5 197.5 27.46
16.5 198.5 27.32
16.5 199.5 27.21
16.5 200.5 27.16
16.5 201.5 27.06
16.5 202.5 26.96
16.5 203.5 26.86
16.5 204.5 26.8
16.5 205.5 26.75
16.5 206.5 26.73
16.5 207.5 26.72
16.5 208.5 26.65
16.5 209.5 26.53
15.5 180.5 28.7
15.5 181.5 28.65
15.5 182.5 28.58
15.5 183.5 28.51
15.5 184.5 28.48
15.5 185.5 28.44
15.5 186.5 28.39
15.5 187.5 28.34
15.5 188.5 28.26
15.5 189.5 28.2
15.5 190.5 28.13
15.5 191.5 28.08
15.5 192.5 28
15.5 193.5 27.92
15.5 194.5 27.82
15.5 195.5 27.7
15.5 196.5 27.56
15.5 197.5 27.45
15.5 198.5 27.33
15.5 199.5 27.24
15.5 200.5 27.21
15.5 201.5 27.16
15.5 202.5 27.1
15.5 203.5 27.06
15.5 204.5 27.04
15.5 205.5 27.01
15.5 206.5 27
15.5 207.5 27.02
15.5 208.5 26.97
15.5 209.5 26.85
14.5 180.5 28.76
14.5 181.5 28.72
14.5 182.5 28.66
14.5 183.5 28.59
14.5 184.5 28.55
14.5 185.5 28.5
14.5 186.5 28.43
14.5 187.5 28.36
14.5 188.5 28.25
14.5 189.5 28.18
14.5 190.5 28.11
14.5 191.5 28.06
14.5 192.5 27.98
14.5 193.5 27.91
14.5 194.5 27.83
14.5 195.5 27.73
14.5 196.5 27.62
14.5 197.5 27.54
14.5 198.5 27.46
14.5 199.5 27.39
14.5 200.5 27.4
14.5 201.5 27.36
14.5 202.5 27.32
14.5 203.5 27.29
14.5 204.5 27.29
14.5 205.5 27.25
14.5 206.5 27.24
14.5 207.5 27.26
14.5 208.5 27.23
14.5 209.5 27.15
13.5 180.5 28.86
13.5 181.5 28.83
13.5 182.5 28.78
13.5 183.5 28.73
13.5 184.5 28.67
13.5 185.5 28.6
13.5 186.5 28.52
13.5 187.5 28.43
13.5 188.5 28.3
13.5 189.5 28.23
13.5 190.5 28.16
13.5 191.5 28.12
13.5 192.5 28.04
13.5 193.5 27.98
13.5 194.5 27.9
13.5 195.5 27.83
13.5 196.5 27.76
13.5 197.5 27.71
13.5 198.5 27.64
13.5 199.5 27.6
13.5 200.5 27.64
13.5 201.5 27.62
13.5 202.5 27.59
13.5 203.5 27.55
13.5 204.5 27.55
13.5 205.5 27.49
13.5 206.5 27.46
13.5 207.5 27.47
13.5 208.5 27.45
13.5 209.5 27.43
12.5 180.5 28.99
12.5 181.5 28.98
12.5 182.5 28.95
12.5 183.5 28.9
12.5 184.5 28.82
12.5 185.5 28.74
12.5 186.5 28.64
12.5 187.5 28.55
12.5 188.5 28.41
12.5 189.5 28.35
12.5 190.5 28.3
12.5 191.5 28.26
12.5 192.5 28.17
12.5 193.5 28.1
12.5 194.5 28.03
12.5 195.5 27.97
12.5 196.5 27.93
12.5 197.5 27.89
12.5 198.5 27.83
12.5 199.5 27.81
12.5 200.5 27.87
12.5 201.5 27.87
12.5 202.5 27.85
12.5 203.5 27.82
12.5 204.5 27.8
12.5 205.5 27.74
12.5 206.5 27.69
12.5 207.5 27.68
12.5 208.5 27.66
12.5 209.5 27.66
11.5 180.5 29.1
11.5 181.5 29.13
11.5 182.5 29.12
11.5 183.5 29.09
11.5 184.5 29.02
11.5 185.5 28.93
11.5 186.5 28.82
11.5 187.5 28.71
11.5 188.5 28.6
11.5 189.5 28.54
11.5 190.5 28.51
11.5 191.5 28.47
11.5 192.5 28.36
11.5 193.5 28.27
11.5 194.5 28.19
11.5 195.5 28.12
11.5 196.5 28.06
11.5 197.5 28.02
11.5 198.5 27.98
11.5 199.5 28
11.5 200.5 28.08
11.5 201.5 28.11
11.5 202.5 28.11
11.5 203.5 28.1
11.5 204.5 28.06
11.5 205.5 28
11.5 206.5 27.96
11.5 207.5 27.93
11.5 208.5 27.9
11.5 209.5 27.89
10.5 180.5 29.24
10.5 181.5 29.27
10.5 182.5 29.27
10.5 183.5 29.25
10.5 184.5 29.22
10.5 185.5 29.14
10.5 186.5 29.04
10.5 187.5 28.94
10.5 188.5 28.86
10.5 189.5 28.82
10.5 190.5 28.79
10.5 191.5 28.74
10.5 192.5 28.6
10.5 193.5 28.49
10.5 194.5 28.4
10.5 195.5 28.32
10.5 196.5 28.25
10.5 197.5 28.22
10.5 198.5 28.19
10.5 199.5 28.24
10.5 200.5 28.35
10.5 201.5 28.4
10.5 202.5 28.41
10.5 203.5 28.4
10.5 204.5 28.38
10.5 205.5 28.33
10.5 206.5 28.29
10.5 207.5 28.26
10.5 208.5 28.22
10.5 209.5 28.2
