39.5 180.5 18.79
39.5 181.5 18.64
39.5 182.5 18.65
39.5 183.5 18.62
39.5 184.5 18.54
39.5 185.5 18.61
39.5 186.5 18.79
39.5 187.5 18.9
39.5 188.5 18.78
39.5 189.5 18.77
39.5 190.5 18.83
39.5 191.5 18.9
39.5 192.5 18.75
39.5 193.5 18.72
39.5 194.5 18.72
39.5 195.5 18.73
39.5 196.5 18.71
39.5 197.5 19.03
39.5 198.5 19.39
39.5 199.5 19.7
39.5 200.5 19.96
39.5 201.5 20.15
39.5 202.5 20.33
39.5 203.5 20.49
39.5 204.5 20.48
39.5 205.5 20.62
39.5 206.5 20.78
39.5 207.5 20.91
39.5 208.5 20.95
39.5 209.5 20.89
38.5 180.5 20.13
38.5 181.5 20.01
38.5 182.5 20.01
38.5 183.5 19.93
38.5 184.5 19.57
38.5 185.5 19.59
38.5 186.5 19.77
38.5 187.5 19.9
38.5 188.5 19.59
38.5 189.5 19.56
38.5 190.5 19.6
38.5 191.5 19.65
38.5 192.5 19.41
38.5 193.5 19.37
38.5 194.5 19.35
38.5 195.5 19.36
38.5 196.5 19.44
38.5 197.5 19.74
38.5 198.5 20.06
38.5 199.5 20.34
38.5 200.5 20.6
38.5 201.5 20.74
38.5 202.5 20.9
38.5 203.5 21.03
38.5 204.5 20.99
38.5 205.5 21.11
38.5 206.5 21.26
38.5 207.5 21.36
38.5 208.5 21.41
38.5 209.5 21.32
37.5 180.5 21.1
37.5 181.5 21.03
37.5 182.5 21.04
37.5 183.5 20.94
37.5 184.5 20.4
37.5 185.5 20.38
37.5 186.5 20.55
37.5 187.5 20.68
37.5 188.5 20.2
37.5 189.5 20.15
37.5 190.5 20.16
37.5 191.5 20.19
37.5 192.5 19.95
37.5 193.5 19.92
37.5 194.5 19.88
37.5 195.5 19.92
37.5 196.5 20.14
37.5 197.5 20.43
37.5 198.5 20.69
37.5 199.5 20.92
37.5 200.5 21.16
37.5 201.5 21.26
37.5 202.5 21.38
37.5 203.5 21.49
37.5 204.5 21.47
37.5 205.5 21.58
37.5 206.5 21.7
37.5 207.5 21.79
37.5 208.5 21.83
37.5 209.5 21.72
36.5 180.5 21.71
36.5 181.5 21.67
36.5 182.5 21.7
36.5 183.5 21.62
36.5 184.5 21.07
36.5 185.5 21.07
36.5 186.5 21.24
36.5 187.5 21.37
36.5 188.5 20.8
36.5 189.5 20.72
36.5 190.5 20.7
36.5 191.5 20.7
36.5 192.5 20.51
36.5 193.5 20.48
36.5 194.5 20.44
36.5 195.5 20.52
36.5 196.5 20.86
36.5 197.5 21.11
36.5 198.5 21.3
36.5 199.5 21.47
36.5 200.5 21.67
36.5 201.5 21.76
36.5 202.5 21.87
36.5 203.5 21.98
36.5 204.5 22.01
36.5 205.5 22.09
36.5 206.5 22.18
36.5 207.5 22.23
36.5 208.5 22.23
36.5 209.5 22.12
35.5 180.5 22.02
35.5 181.5 21.99
35.5 182.5 22.03
35.5 183.5 22.01
35.5 184.5 21.66
35.5 185.5 21.65
35.5 186.5 21.78
35.5 187.5 21.86
35.5 188.5 21.45
35.5 189.5 21.37
35.5 190.5 21.33
35.5 191.5 21.31
35.5 192.5 21.08
35.5 193.5 21.09
35.5 194.5 21.1
35.5 195.5 21.23
35.5 196.5 21.59
35.5 197.5 21.77
35.5 198.5 21.88
35.5 199.5 21.99
35.5 200.5 22.2
35.5 201.5 22.31
35.5 202.5 22.45
35.5 203.5 22.58
35.5 204.5 22.64
35.5 205.5 22.69
35.5 206.5 22.74
35.5 207.5 22.74
35.5 208.5 22.65
35.5 209.5 22.52
34.5 180.5 22.49
34.5 181.5 22.48
34.5 182.5 22.52
34.5 183.5 22.54
34.5 184.5 22.28
34.5 185.5 22.3
34.5 186.5 22.42
34.5 187.5 22.52
34.5 188.5 22.24
34.5 189.5 22.2
34.5 190.5 22.16
34.5 191.5 22.13
34.5 192.5 21.92
34.5 193.5 21.89
34.5 194.5 21.88
34.5 195.5 21.97
34.5 196.5 22.23
34.5 197.5 22.36
34.5 198.5 22.44
34.5 199.5 22.53
34.5 200.5 22.71
34.5 201.5 22.81
34.5 202.5 22.94
34.5 203.5 23.06
34.5 204.5 23.09
34.5 205.5 23.12
34.5 206.5 23.13
34.5 207.5 23.1
34.5 208.5 22.96
34.5 209.5 22.81
33.5 180.5 23.23
33.5 181.5 23.22
33.5 182.5 23.27
33.5 183.5 23.31
33.5 184.5 23.05
33.5 185.5 23.05
33.5 186.5 23.13
33.5 187.5 23.21
33.5 188.5 23.07
33.5 189.5 23.06
33.5 190.5 23.03
33.5 191.5 23
33.5 192.5 22.82
33.5 193.5 22.76
33.5 194.5 22.71
33.5 195.5 22.73
33.5 196.5 22.83
33.5 197.5 22.91
33.5 198.5 22.98
33.5 199.5 23.04
33.5 200.5 23.15
33.5 201.5 23.22
33.5 202.5 23.31
33.5 203.5 23.41
33.5 204.5 23.43
33.5 205.5 23.45
33.5 206.5 23.45
33.5 207.5 23.41
33.5 208.5 23.26
33.5 209.5 23.1
32.5 180.5 24.17
32.5 181.5 24.2
32.5 182.5 24.23
32.5 183.5 24.25
32.5 184.5 23.96
32.5 185.5 23.93
32.5 186.5 23.96
32.5 187.5 23.99
32.5 188.5 23.9
32.5 189.5 23.89
32.5 190.5 23.87
32.5 191.5 23.84
32.5 192.5 23.68
32.5 193.5 23.6
32.5 194.5 23.53
32.5 195.5 23.48
32.5 196.5 23.41
32.5 197.5 23.43
32.5 198.5 23.48
32.5 199.5 23.52
32.5 200.5 23.56
32.5 201.5 23.58
32.5 202.5 23.63
32.5 203.5 23.69
32.5 204.5 23.71
32.5 205.5 23.73
32.5 206.5 23.73
32.5 207.5 23.69
32.5 208.5 23.57
32.5 209.5 23.4
31.5 180.5 25.04
31.5 181.5 25.09
31.5 182.5 25.12
31.5 183.5 25.13
31.5 184.5 24.98
31.5 185.5 24.93
31.5 186.5 24.9
31.5 187.5 24.84
31.5 188.5 24.72
31.5 189.5 24.65
31.5 190.5 24.6
31.5 191.5 24.54
31.5 192.5 24.4
31.5 193.5 24.29
31.5 194.5 24.2
31.5 195.5 24.11
31.5 196.5 23.91
31.5 197.5 23.89
31.5 198.5 23.92
31.5 199.5 23.96
31.5 200.5 23.94
31.5 201.5 23.94
31.5 202.5 23.97
31.5 203.5 24.01
31.5 204.5 24.02
31.5 205.5 24.01
31.5 206.5 23.98
31.5 207.5 23.93
31.5 208.5 23.82
31.5 209.5 23.66
30.5 180.5 25.7
30.5 181.5 25.76
30.5 182.5 25.8
30.5 183.5 25.86
30.5 184.5 25.91
30.5 185.5 25.88
30.5 186.5 25.81
30.5 187.5 25.68
30.5 188.5 25.49
30.5 189.5 25.36
30.5 190.5 25.26
30.5 191.5 25.17
30.5 192.5 24.99
30.5 193.5 24.88
30.5 194.5 24.8
30.5 195.5 24.68
30.5 196.5 24.43
30.5 197.5 24.39
30.5 198.5 24.4
30.5 199.5 24.42
30.5 200.5 24.36
30.5 201.5 24.33
30.5 202.5 24.32
30.5 203.5 24.3
30.5 204.5 24.23
30.5 205.5 24.18
30.5 206.5 24.15
30.5 207.5 24.08
30.5 208.5 23.96
30.5 209.5 23.81
29.5 180.5 26.18
29.5 181.5 26.25
29.5 182.5 26.32
29.5 183.5 26.42
29.5 184.5 26.6
29.5 185.5 26.59
29.5 186.5 26.49
29.5 187.5 26.32
29.5 188.5 26.11
29.5 189.5 25.92
29.5 190.5 25.77
29.5 191.5 25.65
29.5 192.5 25.5
29.5 193.5 25.39
29.5 194.5 25.3
29.5 195.5 25.18
29.5 196.5 24.94
29.5 197.5 24.89
29.5 198.5 24.89
29.5 199.5 24.88
29.5 200.5 24.76
29.5 201.5 24.7
29.5 202.5 24.65
29.5 203.5 24.57
29.5 204.5 24.43
29.5 205.5 24.35
29.5 206.5 24.3
29.5 207.5 24.23
29.5 208.5 24.1
29.5 209.5 23.95
28.5 180.5 26.57
28.5 181.5 26.66
28.5 182.5 26.74
28.5 183.5 26.85
28.5 184.5 27.02
28.5 185.5 27
28.5 186.5 26.88
28.5 187.5 26.7
28.5 188.5 26.51
28.5 189.5 26.3
28.5 190.5 26.13
28.5 191.5 26.01
28.5 192.5 25.94
28.5 193.5 25.84
28.5 194.5 25.75
28.5 195.5 25.63
28.5 196.5 25.42
28.5 197.5 25.35
28.5 198.5 25.32
28.5 199.5 25.27
28.5 200.5 25.12
28.5 201.5 25.01
28.5 202.5 24.92
28.5 203.5 24.8
28.5 204.5 24.62
28.5 205.5 24.53
28.5 206.5 24.47
28.5 207.5 24.39
28.5 208.5 24.28
28.5 209.5 24.14
27.5 180.5 26.92
27.5 181.5 27.02
27.5 182.5 27.09
27.5 183.5 27.15
27.5 184.5 27.16
27.5 185.5 27.11
27.5 186.5 27
27.5 187.5 26.85
27.5 188.5 26.71
27.5 189.5 26.53
27.5 190.5 26.38
27.5 191.5 26.28
27.5 192.5 26.3
27.5 193.5 26.21
27.5 194.5 26.1
27.5 195.5 25.97
27.5 196.5 25.83
27.5 197.5 25.74
27.5 198.5 25.68
27.5 199.5 25.57
27.5 200.5 25.41
27.5 201.5 25.27
27.5 202.5 25.16
27.5 203.5 25.03
27.5 204.5 24.87
27.5 205.5 24.76
27.5 206.5 24.66
27.5 207.5 24.56
27.5 208.5 24.46
27.5 209.5 24.33
26.5 180.5 27.28
26.5 181.5 27.4
26.5 182.5 27.45
26.5 183.5 27.47
26.5 184.5 27.41
26.5 185.5 27.34
26.5 186.5 27.23
26.5 187.5 27.1
26.5 188.5 26.99
26.5 189.5 26.86
26.5 190.5 26.74
26.5 191.5 26.67
26.5 192.5 26.7
26.5 193.5 26.61
26.5 194.5 26.48
26.5 195.5 26.33
26.5 196.5 26.15
26.5 197.5 26.04
26.5 198.5 25.95
26.5 199.5 25.83
26.5 200.5 25.66
26.5 201.5 25.51
26.5 202.5 25.39
26.5 203.5 25.26
26.5 204.5 25.12
26.5 205.5 25
26.5 206.5 24.89
26.5 207.5 24.77
26.5 208.5 24.66
26.5 209.5 24.53
25.5 180.5 27.61
25.5 181.5 27.72
25.5 182.5 27.75
25.5 183.5 27.74
25.5 184.5 27.68
25.5 185.5 27.61
25.5 186.5 27.53
25.5 187.5 27.42
25.5 188.5 27.32
25.5 189.5 27.22
25.5 190.5 27.14
25.5 191.5 27.08
25.5 192.5 27.05
25.5 193.5 26.94
25.5 194.5 26.8
25.5 195.5 26.64
25.5 196.5 26.43
25.5 197.5 26.3
25.5 198.5 26.2
25.5 199.5 26.09
25.5 200.5 25.93
25.5 201.5 25.79
25.5 202.5 25.65
25.5 203.5 25.53
25.5 204.5 25.38
25.5 205.5 25.26
25.5 206.5 25.12
25.5 207.5 24.97
25.5 208.5 24.82
25.5 209.5 24.65
24.5 180.5 27.88
24.5 181.5 27.94
24.5 182.5 27.94
24.5 183.5 27.91
24.5 184.5 27.9
24.5 185.5 27.85
24.5 186.5 27.78
24.5 187.5 27.69
24.5 188.5 27.59
24.5 189.5 27.51
24.5 190.5 27.45
24.5 191.5 27.39
24.5 192.5 27.29
24.5 193.5 27.18
24.5 194.5 27.05
24.5 195.5 26.9
24.5 196.5 26.68
24.5 197.5 26.56
24.5 198.5 26.45
24.5 199.5 26.34
24.5 200.5 26.21
24.5 201.5 26.07
24.5 202.5 25.93
24.5 203.5 25.79
24.5 204.5 25.62
24.5 205.5 25.47
24.5 206.5 25.28
24.5 207.5 25.08
24.5 208.5 24.87
24.5 209.5 24.66
23.5 180.5 28.01
23.5 181.5 28.03
23.5 182.5 28.02
23.5 183.5 28.01
23.5 184.5 28.04
23.5 185.5 28
23.5 186.5 27.93
23.5 187.5 27.83
23.5 188.5 27.76
23.5 189.5 27.69
23.5 190.5 27.63
23.5 191.5 27.58
23.5 192.5 27.44
23.5 193.5 27.31
23.5 194.5 27.2
23.5 195.5 27.08
23.5 196.5 26.92
23.5 197.5 26.83
23.5 198.5 26.73
23.5 199.5 26.64
23.5 200.5 26.51
23.5 201.5 26.36
23.5 202.5 26.18
23.5 203.5 25.98
23.5 204.5 25.74
23.5 205.5 25.54
23.5 206.5 25.31
23.5 207.5 25.07
23.5 208.5 24.83
23.5 209.5 24.61
22.5 180.5 28.1
22.5 181.5 28.11
22.5 182.5 28.1
22.5 183.5 28.1
22.5 184.5 28.15
22.5 185.5 28.11
22.5 186.5 28.02
22.5 187.5 27.91
22.5 188.5 27.84
22.5 189.5 27.79
22.5 190.5 27.76
22.5 191.5 27.74
22.5 192.5 27.66
22.5 193.5 27.57
22.5 194.5 27.48
22.5 195.5 27.38
22.5 196.5 27.24
22.5 197.5 27.16
22.5 198.5 27.07
22.5 199.5 26.98
22.5 200.5 26.81
22.5 201.5 26.62
22.5 202.5 26.39
22.5 203.5 26.14
22.5 204.5 25.87
22.5 205.5 25.63
22.5 206.5 25.38
22.5 207.5 25.15
22.5 208.5 24.94
22.5 209.5 24.72
21.5 180.5 28.21
21.5 181.5 28.22
21.5 182.5 28.22
21.5 183.5 28.22
21.5 184.5 28.27
21.5 185.5 28.22
21.5 186.5 28.12
21.5 187.5 28
21.5 188.5 27.95
21.5 189.5 27.91
21.5 190.5 27.9
21.5 191.5 27.92
21.5 192.5 27.93
21.5 193.5 27.87
21.5 194.5 27.79
21.5 195.5 27.69
21.5 196.5 27.56
21.5 197.5 27.49
21.5 198.5 27.4
21.5 199.5 27.31
21.5 200.5 27.1
21.5 201.5 26.88
21.5 202.5 26.6
21.5 203.5 26.31
21.5 204.5 26.01
21.5 205.5 25.75
21.5 206.5 25.51
21.5 207.5 25.29
21.5 208.5 25.12
21.5 209.5 24.94
20.5 180.5 28.33
20.5 181.5 28.35
20.5 182.5 28.36
20.5 183.5 28.37
20.5 184.5 28.4
20.5 185.5 28.34
20.5 186.5 28.24
20.5 187.5 28.12
20.5 188.5 28.07
20.5 189.5 28.06
20.5 190.5 28.07
20.5 191.5 28.12
20.5 192.5 28.16
20.5 193.5 28.12
20.5 194.5 28.04
20.5 195.5 27.92
20.5 196.5 27.78
20.5 197.5 27.7
20.5 198.5 27.61
20.5 199.5 27.52
20.5 200.5 27.31
20.5 201.5 27.07
20.5 202.5 26.77
20.5 203.5 26.45
20.5 204.5 26.14
20.5 205.5 25.88
20.5 206.5 25.64
20.5 207.5 25.46
20.5 208.5 25.34
20.5 209.5 25.19
19.5 180.5 28.48
19.5 181.5 28.5
19.5 182.5 28.5
19.5 183.5 28.5
19.5 184.5 28.52
19.5 185.5 28.47
19.5 186.5 28.38
19.5 187.5 28.27
19.5 188.5 28.24
19.5 189.5 28.23
19.5 190.5 28.23
19.5 191.5 28.26
19.5 192.5 28.27
19.5 193.5 28.21
19.5 194.5 28.11
19.5 195.5 27.98
19.5 196.5 27.81
19.5 197.5 27.71
19.5 198.5 27.6
19.5 199.5 27.5
19.5 200.5 27.36
19.5 201.5 27.14
19.5 202.5 26.86
19.5 203.5 26.55
19.5 204.5 26.25
19.5 205.5 26
19.5 206.5 25.8
19.5 207.5 25.66
19.5 208.5 25.57
19.5 209.5 25.44
18.5 180.5 28.61
18.5 181.5 28.61
18.5 182.5 28.59
18.5 183.5 28.58
18.5 184.5 28.61
18.5 185.5 28.57
18.5 186.5 28.5
18.5 187.5 28.42
18.5 188.5 28.36
18.5 189.5 28.34
18.5 190.5 28.32
18.5 191.5 28.3
18.5 192.5 28.25
18.5 193.5 28.16
18.5 194.5 28.03
18.5 195.5 27.86
18.5 196.5 27.7
18.5 197.5 27.57
18.5 198.5 27.45
18.5 199.5 27.35
18.5 200.5 27.26
18.5 201.5 27.08
18.5 202.5 26.85
18.5 203.5 26.6
18.5 204.5 26.35
18.5 205.5 26.14
18.5 206.5 25.97
18.5 207.5 25.86
18.5 208.5 25.74
18.5 209.5 25.59
17.5 180.5 28.68
17.5 181.5 28.66
17.5 182.5 28.62
17.5 183.5 28.6
17.5 184.5 28.63
17.5 185.5 28.61
17.5 186.5 28.57
17.5 187.5 28.51
17.5 188.5 28.42
17.5 189.5 28.37
17.5 190.5 28.33
17.5 191.5 28.28
17.5 192.5 28.18
17.5 193.5 28.05
17.5 194.5 27.88
17.5 195.5 27.69
17.5 196.5 27.56
17.5 197.5 27.41
17.5 198.5 27.28
17.5 199.5 27.18
17.5 200.5 27.11
17.5 201.5 26.98
17.5 202.5 26.81
17.5 203.5 26.62
17.5 204.5 26.46
17.5 205.5 26.3
17.5 206.5 26.17
17.5 207.5 26.09
17.5 208.5 25.94
17.5 209.5 25.76
16.5 180.5 28.7
16.5 181.5 28.67
16.5 182.5 28.62
16.5 183.5 28.59
16.5 184.5 28.61
16.5 185.5 28.61
16.5 186.5 28.58
16.5 187.5 28.53
16.5 188.5 28.43
16.5 189.5 28.36
16.5 190.5 28.29
16.5 191.5 28.21
16.5 192.5 28.08
16.5 193.5 27.94
16.5 194.5 27.77
16.5 195.5 27.59
16.5 196.5 27.45
16.5 197.5 27.32
16.5 198.5 27.19
16.5 199.5 27.11
16.5 200.5 27.05
16.5 201.5 26.94
16.5 202.5 26.82
16.5 203.5 26.69
16.5 204.5 26.59
16.5 205.5 26.49
16.5 206.5 26.41
16.5 207.5 26.36
16.5 208.5 26.21
16.5 209.5 26.04
15.5 180.5 28.68
15.5 181.5 28.64
15.5 182.5 28.59
15.5 183.5 28.55
15.5 184.5 28.57
15.5 185.5 28.56
15.5 186.5 28.54
15.5 187.5 28.51
15.5 188.5 28.42
15.5 189.5 28.35
15.5 190.5 28.27
15.5 191.5 28.19
15.5 192.5 28.03
15.5 193.5 27.91
15.5 194.5 27.77
15.5 195.5 27.61
15.5 196.5 27.43
15.5 197.5 27.32
15.5 198.5 27.23
15.5 199.5 27.17
15.5 200.5 27.15
15.5 201.5 27.08
15.5 202.5 26.99
15.5 203.5 26.9
15.5 204.5 26.81
15.5 205.5 26.73
15.5 206.5 26.67
15.5 207.5 26.63
15.5 208.5 26.53
15.5 209.5 26.37
14.5 180.5 28.71
14.5 181.5 28.67
14.5 182.5 28.61
14.5 183.5 28.57
14.5 184.5 28.57
14.5 185.5 28.55
14.5 186.5 28.51
14.5 187.5 28.47
14.5 188.5 28.39
14.5 189.5 28.33
14.5 190.5 28.26
14.5 191.5 28.2
14.5 192.5 28.07
14.5 193.5 27.96
14.5 194.5 27.83
14.5 195.5 27.69
14.5 196.5 27.54
14.5 197.5 27.46
14.5 198.5 27.4
14.5 199.5 27.37
14.5 200.5 27.37
14.5 201.5 27.31
14.5 202.5 27.24
14.5 203.5 27.16
14.5 204.5 27.06
14.5 205.5 26.97
14.5 206.5 26.9
14.5 207.5 26.86
14.5 208.5 26.81
14.5 209.5 26.7
13.5 180.5 28.79
13.5 181.5 28.75
13.5 182.5 28.7
13.5 183.5 28.66
13.5 184.5 28.62
13.5 185.5 28.58
13.5 186.5 28.53
13.5 187.5 28.47
13.5 188.5 28.4
13.5 189.5 28.35
13.5 190.5 28.3
13.5 191.5 28.26
13.5 192.5 28.17
13.5 193.5 28.07
13.5 194.5 27.96
13.5 195.5 27.85
13.5 196.5 27.74
13.5 197.5 27.69
13.5 198.5 27.64
13.5 199.5 27.63
13.5 200.5 27.63
13.5 201.5 27.6
13.5 202.5 27.52
13.5 203.5 27.44
13.5 204.5 27.32
13.5 205.5 27.21
13.5 206.5 27.13
13.5 207.5 27.07
13.5 208.5 27.05
13.5 209.5 27.01
12.5 180.5 28.93
12.5 181.5 28.91
12.5 182.5 28.87
12.5 183.5 28.82
12.5 184.5 28.73
12.5 185.5 28.67
12.5 186.5 28.6
12.5 187.5 28.52
12.5 188.5 28.44
12.5 189.5 28.41
12.5 190.5 28.4
12.5 191.5 28.37
12.5 192.5 28.3
12.5 193.5 28.21
12.5 194.5 28.12
12.5 195.5 28.04
12.5 196.5 27.95
12.5 197.5 27.91
12.5 198.5 27.87
12.5 199.5 27.87
12.5 200.5 27.87
12.5 201.5 27.85
12.5 202.5 27.8
12.5 203.5 27.72
12.5 204.5 27.58
12.5 205.5 27.47
12.5 206.5 27.37
12.5 207.5 27.3
12.5 208.5 27.29
12.5 209.5 27.27
11.5 180.5 29.06
11.5 181.5 29.05
11.5 182.5 29.03
11.5 183.5 29
11.5 184.5 28.91
11.5 185.5 28.84
11.5 186.5 28.75
11.5 187.5 28.65
11.5 188.5 28.53
11.5 189.5 28.49
11.5 190.5 28.46
11.5 191.5 28.42
11.5 192.5 28.37
11.5 193.5 28.29
11.5 194.5 28.22
11.5 195.5 28.17
11.5 196.5 28.11
11.5 197.5 28.08
11.5 198.5 28.05
11.5 199.5 28.07
11.5 200.5 28.07
11.5 201.5 28.07
11.5 202.5 28.04
11.5 203.5 27.99
11.5 204.5 27.88
11.5 205.5 27.78
11.5 206.5 27.69
11.5 207.5 27.6
11.5 208.5 27.56
11.5 209.5 27.52
10.5 180.5 29.21
10.5 181.5 29.23
10.5 182.5 29.22
10.5 183.5 29.21
10.5 184.5 29.14
10.5 185.5 29.07
10.5 186.5 28.97
10.5 187.5 28.87
10.5 188.5 28.72
10.5 189.5 28.67
10.5 190.5 28.64
10.5 191.5 28.58
10.5 192.5 28.51
10.5 193.5 28.42
10.5 194.5 28.36
10.5 195.5 28.32
10.5 196.5 28.32
10.5 197.5 28.29
10.5 198.5 28.28
10.5 199.5 28.32
10.5 200.5 28.36
10.5 201.5 28.38
10.5 202.5 28.36
10.5 203.5 28.32
10.5 204.5 28.27
10.5 205.5 28.19
10.5 206.5 28.11
10.5 207.5 28.03
10.5 208.5 27.96
10.5 209.5 27.9
