39.5 180.5 12.73
39.5 181.5 12.8
39.5 182.5 12.84
39.5 183.5 12.87
39.5 184.5 12.6
39.5 185.5 12.48
39.5 186.5 12.3
39.5 187.5 12.06
39.5 188.5 11.7
39.5 189.5 11.59
39.5 190.5 11.51
39.5 191.5 11.4
39.5 192.5 11.33
39.5 193.5 11.23
39.5 194.5 11.15
39.5 195.5 11.06
39.5 196.5 11.04
39.5 197.5 11
39.5 198.5 10.98
39.5 199.5 10.98
39.5 200.5 11.03
39.5 201.5 11.09
39.5 202.5 11.17
39.5 203.5 11.27
39.5 204.5 11.33
39.5 205.5 11.26
39.5 206.5 11.11
39.5 207.5 11.08
39.5 208.5 11.29
39.5 209.5 11.35
38.5 180.5 13.89
38.5 181.5 13.95
38.5 182.5 13.99
38.5 183.5 13.97
38.5 184.5 13.62
38.5 185.5 13.46
38.5 186.5 13.29
38.5 187.5 13.03
38.5 188.5 12.47
38.5 189.5 12.37
38.5 190.5 12.34
38.5 191.5 12.28
38.5 192.5 12.23
38.5 193.5 12.13
38.5 194.5 12.04
38.5 195.5 11.96
38.5 196.5 11.96
38.5 197.5 11.91
38.5 198.5 11.87
38.5 199.5 11.87
38.5 200.5 11.94
38.5 201.5 12.01
38.5 202.5 12.08
38.5 203.5 12.17
38.5 204.5 12.28
38.5 205.5 12.21
38.5 206.5 12.08
38.5 207.5 12.05
38.5 208.5 12.22
38.5 209.5 12.25
37.5 180.5 14.65
37.5 181.5 14.62
37.5 182.5 14.64
37.5 183.5 14.58
37.5 184.5 14.23
37.5 185.5 14.07
37.5 186.5 13.93
37.5 187.5 13.72
37.5 188.5 13.16
37.5 189.5 13.09
37.5 190.5 13.11
37.5 191.5 13.1
37.5 192.5 13.06
37.5 193.5 12.98
37.5 194.5 12.9
37.5 195.5 12.83
37.5 196.5 12.87
37.5 197.5 12.82
37.5 198.5 12.78
37.5 199.5 12.77
37.5 200.5 12.84
37.5 201.5 12.91
37.5 202.5 12.98
37.5 203.5 13.05
37.5 204.5 13.2
37.5 205.5 13.16
37.5 206.5 13.07
37.5 207.5 13.08
37.5 208.5 13.25
37.5 209.5 13.24
36.5 180.5 15.08
36.5 181.5 14.93
36.5 182.5 14.94
36.5 183.5 14.89
36.5 184.5 14.62
36.5 185.5 14.47
36.5 186.5 14.37
36.5 187.5 14.22
36.5 188.5 13.84
36.5 189.5 13.82
36.5 190.5 13.89
36.5 191.5 13.93
36.5 192.5 13.92
36.5 193.5 13.86
36.5 194.5 13.81
36.5 195.5 13.76
36.5 196.5 13.79
36.5 197.5 13.77
36.5 198.5 13.73
36.5 199.5 13.72
36.5 200.5 13.76
36.5 201.5 13.82
36.5 202.5 13.87
36.5 203.5 13.92
36.5 204.5 14.11
36.5 205.5 14.11
36.5 206.5 14.08
36.5 207.5 14.13
36.5 208.5 14.32
36.5 209.5 14.29
35.5 180.5 15.51
35.5 181.5 15.38
35.5 182.5 15.48
35.5 183.5 15.49
35.5 184.5 15.18
35.5 185.5 15.03
35.5 186.5 14.92
35.5 187.5 14.79
35.5 188.5 14.71
35.5 189.5 14.73
35.5 190.5 14.83
35.5 191.5 14.92
35.5 192.5 15.05
35.5 193.5 15.05
35.5 194.5 15.03
35.5 195.5 15.02
35.5 196.5 15.02
35.5 197.5 14.99
35.5 198.5 14.93
35.5 199.5 14.9
35.5 200.5 14.91
35.5 201.5 14.92
35.5 202.5 14.9
35.5 203.5 14.89
35.5 204.5 15.07
35.5 205.5 15.11
35.5 206.5 15.13
35.5 207.5 15.2
35.5 208.5 15.35
35.5 209.5 15.29
34.5 180.5 15.99
34.5 181.5 15.86
34.5 182.5 16.01
34.5 183.5 16.12
34.5 184.5 16.02
34.5 185.5 15.9
34.5 186.5 15.75
34.5 187.5 15.61
34.5 188.5 15.74
34.5 189.5 15.81
34.5 190.5 15.95
34.5 191.5 16.1
34.5 192.5 16.37
34.5 193.5 16.41
34.5 194.5 16.41
34.5 195.5 16.4
34.5 196.5 16.37
34.5 197.5 16.32
34.5 198.5 16.24
34.5 199.5 16.14
34.5 200.5 15.97
34.5 201.5 15.94
34.5 202.5 15.9
34.5 203.5 15.89
34.5 204.5 16.12
34.5 205.5 16.17
34.5 206.5 16.2
34.5 207.5 16.25
34.5 208.5 16.39
34.5 209.5 16.3
33.5 180.5 16.59
33.5 181.5 16.53
33.5 182.5 16.71
33.5 183.5 16.88
33.5 184.5 16.96
33.5 185.5 16.86
33.5 186.5 16.65
33.5 187.5 16.48
33.5 188.5 16.76
33.5 189.5 16.89
33.5 190.5 17.07
33.5 191.5 17.27
33.5 192.5 17.63
33.5 193.5 17.69
33.5 194.5 17.7
33.5 195.5 17.68
33.5 196.5 17.59
33.5 197.5 17.5
33.5 198.5 17.39
33.5 199.5 17.24
33.5 200.5 16.92
33.5 201.5 16.87
33.5 202.5 16.84
33.5 203.5 16.85
33.5 204.5 17.06
33.5 205.5 17.11
33.5 206.5 17.12
33.5 207.5 17.12
33.5 208.5 17.2
33.5 209.5 17.08
32.5 180.5 17.36
32.5 181.5 17.4
32.5 182.5 17.59
32.5 183.5 17.74
32.5 184.5 17.91
32.5 185.5 17.77
32.5 186.5 17.51
32.5 187.5 17.33
32.5 188.5 17.73
32.5 189.5 17.92
32.5 190.5 18.14
32.5 191.5 18.37
32.5 192.5 18.72
32.5 193.5 18.8
32.5 194.5 18.81
32.5 195.5 18.75
32.5 196.5 18.58
32.5 197.5 18.47
32.5 198.5 18.34
32.5 199.5 18.18
32.5 200.5 17.83
32.5 201.5 17.78
32.5 202.5 17.75
32.5 203.5 17.74
32.5 204.5 17.86
32.5 205.5 17.88
32.5 206.5 17.85
32.5 207.5 17.81
32.5 208.5 17.75
32.5 209.5 17.61
31.5 180.5 18.26
31.5 181.5 18.4
31.5 182.5 18.58
31.5 183.5 18.67
31.5 184.5 18.83
31.5 185.5 18.59
31.5 186.5 18.26
31.5 187.5 18.07
31.5 188.5 18.62
31.5 189.5 18.82
31.5 190.5 19.03
31.5 191.5 19.28
31.5 192.5 19.65
31.5 193.5 19.76
31.5 194.5 19.77
31.5 195.5 19.69
31.5 196.5 19.4
31.5 197.5 19.28
31.5 198.5 19.19
31.5 199.5 19.06
31.5 200.5 18.85
31.5 201.5 18.8
31.5 202.5 18.75
31.5 203.5 18.67
31.5 204.5 18.59
31.5 205.5 18.53
31.5 206.5 18.48
31.5 207.5 18.4
31.5 208.5 18.24
31.5 209.5 18.12
30.5 180.5 19.17
30.5 181.5 19.24
30.5 182.5 19.33
30.5 183.5 19.34
30.5 184.5 19.49
30.5 185.5 19.3
30.5 186.5 19.08
30.5 187.5 19.01
30.5 188.5 19.56
30.5 189.5 19.77
30.5 190.5 19.96
30.5 191.5 20.16
30.5 192.5 20.43
30.5 193.5 20.53
30.5 194.5 20.53
30.5 195.5 20.44
30.5 196.5 20.1
30.5 197.5 20.01
30.5 198.5 19.97
30.5 199.5 19.89
30.5 200.5 19.67
30.5 201.5 19.63
30.5 202.5 19.62
30.5 203.5 19.52
30.5 204.5 19.34
30.5 205.5 19.23
30.5 206.5 19.19
30.5 207.5 19.15
30.5 208.5 19.04
30.5 209.5 18.93
29.5 180.5 20.15
29.5 181.5 20.1
29.5 182.5 20.09
29.5 183.5 20.03
29.5 184.5 20.21
29.5 185.5 20.12
29.5 186.5 20.06
29.5 187.5 20.13
29.5 188.5 20.53
29.5 189.5 20.68
29.5 190.5 20.8
29.5 191.5 20.9
29.5 192.5 21
29.5 193.5 21.07
29.5 194.5 21.09
29.5 195.5 21.02
29.5 196.5 20.71
29.5 197.5 20.67
29.5 198.5 20.68
29.5 199.5 20.62
29.5 200.5 20.38
29.5 201.5 20.36
29.5 202.5 20.38
29.5 203.5 20.29
29.5 204.5 20.07
29.5 205.5 19.95
29.5 206.5 19.93
29.5 207.5 19.92
29.5 208.5 19.87
29.5 209.5 19.78
28.5 180.5 21.14
28.5 181.5 20.99
28.5 182.5 20.89
28.5 183.5 20.79
28.5 184.5 21.03
28.5 185.5 21.07
28.5 186.5 21.17
28.5 187.5 21.33
28.5 188.5 21.51
28.5 189.5 21.51
28.5 190.5 21.49
28.5 191.5 21.44
28.5 192.5 21.35
28.5 193.5 21.4
28.5 194.5 21.45
28.5 195.5 21.42
28.5 196.5 21.22
28.5 197.5 21.21
28.5 198.5 21.26
28.5 199.5 21.23
28.5 200.5 20.98
28.5 201.5 20.97
28.5 202.5 21.02
28.5 203.5 20.97
28.5 204.5 20.72
28.5 205.5 20.63
28.5 206.5 20.65
28.5 207.5 20.68
28.5 208.5 20.63
28.5 209.5 20.53
27.5 180.5 22.03
27.5 181.5 21.84
27.5 182.5 21.72
27.5 183.5 21.6
27.5 184.5 21.84
27.5 185.5 21.95
27.5 186.5 22.12
27.5 187.5 22.28
27.5 188.5 22.29
27.5 189.5 22.13
27.5 190.5 21.98
27.5 191.5 21.83
27.5 192.5 21.7
27.5 193.5 21.81
27.5 194.5 21.94
27.5 195.5 21.97
27.5 196.5 21.93
27.5 197.5 21.9
27.5 198.5 21.93
27.5 199.5 21.88
27.5 200.5 21.66
27.5 201.5 21.61
27.5 202.5 21.63
27.5 203.5 21.57
27.5 204.5 21.25
27.5 205.5 21.26
27.5 206.5 21.38
27.5 207.5 21.46
27.5 208.5 21.36
27.5 209.5 21.25
26.5 180.5 22.89
26.5 181.5 22.75
26.5 182.5 22.64
26.5 183.5 22.5
26.5 184.5 22.61
26.5 185.5 22.71
26.5 186.5 22.89
26.5 187.5 23
26.5 188.5 22.85
26.5 189.5 22.57
26.5 190.5 22.33
26.5 191.5 22.14
26.5 192.5 22.09
26.5 193.5 22.25
26.5 194.5 22.42
26.5 195.5 22.52
26.5 196.5 22.6
26.5 197.5 22.52
26.5 198.5 22.46
26.5 199.5 22.35
26.5 200.5 22.08
26.5 201.5 22.03
26.5 202.5 22.07
26.5 203.5 22.05
26.5 204.5 21.74
26.5 205.5 21.81
26.5 206.5 21.97
26.5 207.5 22.05
26.5 208.5 21.92
26.5 209.5 21.8
25.5 180.5 23.68
25.5 181.5 23.62
25.5 182.5 23.54
25.5 183.5 23.39
25.5 184.5 23.37
25.5 185.5 23.4
25.5 186.5 23.51
25.5 187.5 23.54
25.5 188.5 23.32
25.5 189.5 22.98
25.5 190.5 22.71
25.5 191.5 22.55
25.5 192.5 22.67
25.5 193.5 22.86
25.5 194.5 23.05
25.5 195.5 23.17
25.5 196.5 23.28
25.5 197.5 23.15
25.5 198.5 23.01
25.5 199.5 22.84
25.5 200.5 22.51
25.5 201.5 22.45
25.5 202.5 22.49
25.5 203.5 22.51
25.5 204.5 22.27
25.5 205.5 22.36
25.5 206.5 22.51
25.5 207.5 22.57
25.5 208.5 22.44
25.5 209.5 22.28
24.5 180.5 24.31
24.5 181.5 24.32
24.5 182.5 24.29
24.5 183.5 24.17
24.5 184.5 24.1
24.5 185.5 24.06
24.5 186.5 24.08
24.5 187.5 24.01
24.5 188.5 23.78
24.5 189.5 23.46
24.5 190.5 23.23
24.5 191.5 23.15
24.5 192.5 23.39
24.5 193.5 23.61
24.5 194.5 23.77
24.5 195.5 23.87
24.5 196.5 23.9
24.5 197.5 23.74
24.5 198.5 23.55
24.5 199.5 23.37
24.5 200.5 23.04
24.5 201.5 22.97
24.5 202.5 22.98
24.5 203.5 22.98
24.5 204.5 22.83
24.5 205.5 22.93
24.5 206.5 23.04
24.5 207.5 23.06
24.5 208.5 22.91
24.5 209.5 22.73
23.5 180.5 24.8
23.5 181.5 24.84
23.5 182.5 24.87
23.5 183.5 24.81
23.5 184.5 24.8
23.5 185.5 24.72
23.5 186.5 24.63
23.5 187.5 24.47
23.5 188.5 24.34
23.5 189.5 24.11
23.5 190.5 23.97
23.5 191.5 23.97
23.5 192.5 24.11
23.5 193.5 24.29
23.5 194.5 24.42
23.5 195.5 24.49
23.5 196.5 24.43
23.5 197.5 24.27
23.5 198.5 24.09
23.5 199.5 23.93
23.5 200.5 23.7
23.5 201.5 23.56
23.5 202.5 23.44
23.5 203.5 23.36
23.5 204.5 23.34
23.5 205.5 23.39
23.5 206.5 23.44
23.5 207.5 23.42
23.5 208.5 23.26
23.5 209.5 23.09
22.5 180.5 25.13
22.5 181.5 25.18
22.5 182.5 25.23
22.5 183.5 25.21
22.5 184.5 25.21
22.5 185.5 25.14
22.5 186.5 25.05
22.5 187.5 24.89
22.5 188.5 24.88
22.5 189.5 24.7
22.5 190.5 24.61
22.5 191.5 24.63
22.5 192.5 24.69
22.5 193.5 24.78
22.5 194.5 24.79
22.5 195.5 24.76
22.5 196.5 24.64
22.5 197.5 24.51
22.5 198.5 24.39
22.5 199.5 24.32
22.5 200.5 24.24
22.5 201.5 24.11
22.5 202.5 23.95
22.5 203.5 23.81
22.5 204.5 23.75
22.5 205.5 23.71
22.5 206.5 23.67
22.5 207.5 23.57
22.5 208.5 23.42
22.5 209.5 23.27
21.5 180.5 25.49
21.5 181.5 25.53
21.5 182.5 25.57
21.5 183.5 25.56
21.5 184.5 25.53
21.5 185.5 25.5
21.5 186.5 25.44
21.5 187.5 25.32
21.5 188.5 25.38
21.5 189.5 25.24
21.5 190.5 25.16
21.5 191.5 25.15
21.5 192.5 25.18
21.5 193.5 25.16
21.5 194.5 25.08
21.5 195.5 24.99
21.5 196.5 24.87
21.5 197.5 24.78
21.5 198.5 24.72
21.5 199.5 24.72
21.5 200.5 24.72
21.5 201.5 24.6
21.5 202.5 24.41
21.5 203.5 24.22
21.5 204.5 24.05
21.5 205.5 23.92
21.5 206.5 23.8
21.5 207.5 23.67
21.5 208.5 23.57
21.5 209.5 23.46
20.5 180.5 25.88
20.5 181.5 25.9
20.5 182.5 25.92
20.5 183.5 25.9
20.5 184.5 25.82
20.5 185.5 25.83
20.5 186.5 25.81
20.5 187.5 25.73
20.5 188.5 25.79
20.5 189.5 25.68
20.5 190.5 25.6
20.5 191.5 25.57
20.5 192.5 25.6
20.5 193.5 25.51
20.5 194.5 25.38
20.5 195.5 25.27
20.5 196.5 25.19
20.5 197.5 25.14
20.5 198.5 25.11
20.5 199.5 25.12
20.5 200.5 25.11
20.5 201.5 24.98
20.5 202.5 24.77
20.5 203.5 24.54
20.5 204.5 24.29
20.5 205.5 24.11
20.5 206.5 23.95
20.5 207.5 23.83
20.5 208.5 23.79
20.5 209.5 23.73
19.5 180.5 26.21
19.5 181.5 26.21
19.5 182.5 26.21
19.5 183.5 26.19
19.5 184.5 26.15
19.5 185.5 26.15
19.5 186.5 26.14
19.5 187.5 26.08
19.5 188.5 26.09
19.5 189.5 26.02
19.5 190.5 25.95
19.5 191.5 25.91
19.5 192.5 25.93
19.5 193.5 25.84
19.5 194.5 25.74
19.5 195.5 25.66
19.5 196.5 25.55
19.5 197.5 25.49
19.5 198.5 25.44
19.5 199.5 25.39
19.5 200.5 25.26
19.5 201.5 25.09
19.5 202.5 24.87
19.5 203.5 24.65
19.5 204.5 24.49
19.5 205.5 24.31
19.5 206.5 24.14
19.5 207.5 24.04
19.5 208.5 24.02
19.5 209.5 23.96
18.5 180.5 26.41
18.5 181.5 26.39
18.5 182.5 26.38
18.5 183.5 26.36
18.5 184.5 26.37
18.5 185.5 26.36
18.5 186.5 26.36
18.5 187.5 26.32
18.5 188.5 26.32
18.5 189.5 26.27
18.5 190.5 26.21
18.5 191.5 26.17
18.5 192.5 26.14
18.5 193.5 26.04
18.5 194.5 25.94
18.5 195.5 25.86
18.5 196.5 25.69
18.5 197.5 25.59
18.5 198.5 25.48
18.5 199.5 25.36
18.5 200.5 25.17
18.5 201.5 25
18.5 202.5 24.82
18.5 203.5 24.68
18.5 204.5 24.65
18.5 205.5 24.53
18.5 206.5 24.39
18.5 207.5 24.31
18.5 208.5 24.24
18.5 209.5 24.16
17.5 180.5 26.52
17.5 181.5 26.5
17.5 182.5 26.49
17.5 183.5 26.48
17.5 184.5 26.52
17.5 185.5 26.52
17.5 186.5 26.51
17.5 187.5 26.47
17.5 188.5 26.45
17.5 189.5 26.41
17.5 190.5 26.35
17.5 191.5 26.3
17.5 192.5 26.22
17.5 193.5 26.12
17.5 194.5 26.02
17.5 195.5 25.93
17.5 196.5 25.75
17.5 197.5 25.62
17.5 198.5 25.47
17.5 199.5 25.3
17.5 200.5 25.09
17.5 201.5 24.94
17.5 202.5 24.82
17.5 203.5 24.76
17.5 204.5 24.8
17.5 205.5 24.74
17.5 206.5 24.65
17.5 207.5 24.57
17.5 208.5 24.47
17.5 209.5 24.37
16.5 180.5 26.61
16.5 181.5 26.6
16.5 182.5 26.61
16.5 183.5 26.64
16.5 184.5 26.68
16.5 185.5 26.68
16.5 186.5 26.65
16.5 187.5 26.6
16.5 188.5 26.55
16.5 189.5 26.51
16.5 190.5 26.46
16.5 191.5 26.4
16.5 192.5 26.28
16.5 193.5 26.17
16.5 194.5 26.07
16.5 195.5 25.97
16.5 196.5 25.83
16.5 197.5 25.68
16.5 198.5 25.51
16.5 199.5 25.35
16.5 200.5 25.18
16.5 201.5 25.07
16.5 202.5 25
16.5 203.5 24.99
16.5 204.5 25
16.5 205.5 24.97
16.5 206.5 24.89
16.5 207.5 24.81
16.5 208.5 24.73
16.5 209.5 24.63
15.5 180.5 26.81
15.5 181.5 26.82
15.5 182.5 26.84
15.5 183.5 26.87
15.5 184.5 26.89
15.5 185.5 26.87
15.5 186.5 26.83
15.5 187.5 26.77
15.5 188.5 26.7
15.5 189.5 26.66
15.5 190.5 26.62
15.5 191.5 26.57
15.5 192.5 26.47
15.5 193.5 26.34
15.5 194.5 26.21
15.5 195.5 26.08
15.5 196.5 25.99
15.5 197.5 25.85
15.5 198.5 25.71
15.5 199.5 25.59
15.5 200.5 25.48
15.5 201.5 25.41
15.5 202.5 25.35
15.5 203.5 25.33
15.5 204.5 25.26
15.5 205.5 25.21
15.5 206.5 25.12
15.5 207.5 25.01
15.5 208.5 25
15.5 209.5 24.93
14.5 180.5 27.01
14.5 181.5 27.02
14.5 182.5 27.03
14.5 183.5 27.06
14.5 184.5 27.04
14.5 185.5 27.02
14.5 186.5 26.97
14.5 187.5 26.9
14.5 188.5 26.85
14.5 189.5 26.82
14.5 190.5 26.79
14.5 191.5 26.76
14.5 192.5 26.64
14.5 193.5 26.5
14.5 194.5 26.35
14.5 195.5 26.2
14.5 196.5 26.11
14.5 197.5 26
14.5 198.5 25.89
14.5 199.5 25.8
14.5 200.5 25.76
14.5 201.5 25.73
14.5 202.5 25.7
14.5 203.5 25.7
14.5 204.5 25.58
14.5 205.5 25.53
14.5 206.5 25.46
14.5 207.5 25.37
14.5 208.5 25.41
14.5 209.5 25.39
13.5 180.5 27.23
13.5 181.5 27.23
13.5 182.5 27.21
13.5 183.5 27.2
13.5 184.5 27.16
13.5 185.5 27.12
13.5 186.5 27.06
13.5 187.5 27
13.5 188.5 26.99
13.5 189.5 26.97
13.5 190.5 26.94
13.5 191.5 26.92
13.5 192.5 26.82
13.5 193.5 26.7
13.5 194.5 26.55
13.5 195.5 26.39
13.5 196.5 26.27
13.5 197.5 26.17
13.5 198.5 26.08
13.5 199.5 26.01
13.5 200.5 25.98
13.5 201.5 25.98
13.5 202.5 26
13.5 203.5 26.01
13.5 204.5 25.92
13.5 205.5 25.89
13.5 206.5 25.86
13.5 207.5 25.81
13.5 208.5 25.85
13.5 209.5 25.86
12.5 180.5 27.46
12.5 181.5 27.42
12.5 182.5 27.37
12.5 183.5 27.32
12.5 184.5 27.26
12.5 185.5 27.21
12.5 186.5 27.15
12.5 187.5 27.09
12.5 188.5 27.13
12.5 189.5 27.11
12.5 190.5 27.08
12.5 191.5 27.07
12.5 192.5 26.98
12.5 193.5 26.87
12.5 194.5 26.75
12.5 195.5 26.62
12.5 196.5 26.46
12.5 197.5 26.38
12.5 198.5 26.29
12.5 199.5 26.23
12.5 200.5 26.18
12.5 201.5 26.21
12.5 202.5 26.25
12.5 203.5 26.29
12.5 204.5 26.27
12.5 205.5 26.28
12.5 206.5 26.29
12.5 207.5 26.29
12.5 208.5 26.3
12.5 209.5 26.33
11.5 180.5 27.67
11.5 181.5 27.61
11.5 182.5 27.54
11.5 183.5 27.47
11.5 184.5 27.42
11.5 185.5 27.36
11.5 186.5 27.29
11.5 187.5 27.24
11.5 188.5 27.27
11.5 189.5 27.25
11.5 190.5 27.23
11.5 191.5 27.21
11.5 192.5 27.12
11.5 193.5 27.04
11.5 194.5 26.96
11.5 195.5 26.87
11.5 196.5 26.7
11.5 197.5 26.63
11.5 198.5 26.56
11.5 199.5 26.48
11.5 200.5 26.43
11.5 201.5 26.46
11.5 202.5 26.53
11.5 203.5 26.59
11.5 204.5 26.68
11.5 205.5 26.71
11.5 206.5 26.75
11.5 207.5 26.79
11.5 208.5 26.76
11.5 209.5 26.74
10.5 180.5 27.87
10.5 181.5 27.79
10.5 182.5 27.71
10.5 183.5 27.63
10.5 184.5 27.62
10.5 185.5 27.56
10.5 186.5 27.48
10.5 187.5 27.42
10.5 188.5 27.42
10.5 189.5 27.38
10.5 190.5 27.34
10.5 191.5 27.3
10.5 192.5 27.22
10.5 193.5 27.17
10.5 194.5 27.13
10.5 195.5 27.1
10.5 196.5 26.98
10.5 197.5 26.94
10.5 198.5 26.89
10.5 199.5 26.82
10.5 200.5 26.79
10.5 201.5 26.84
10.5 202.5 26.92
10.5 203.5 26.99
10.5 204.5 27.12
10.5 205.5 27.15
10.5 206.5 27.19
10.5 207.5 27.2
10.5 208.5 27.04
10.5 209.5 26.97
