39.5 180.5 12.13
39.5 181.5 12.24
39.5 182.5 12.29
39.5 183.5 12.37
39.5 184.5 12.8
39.5 185.5 12.72
39.5 186.5 12.48
39.5 187.5 12.24
39.5 188.5 12.23
39.5 189.5 12.25
39.5 190.5 12.34
39.5 191.5 12.34
39.5 192.5 12.06
39.5 193.5 12.04
39.5 194.5 12.11
39.5 195.5 12.03
39.5 196.5 11.49
39.5 197.5 11.3
39.5 198.5 11.24
39.5 199.5 11.18
39.5 200.5 11.13
39.5 201.5 11.12
39.5 202.5 11.17
39.5 203.5 11.28
39.5 204.5 11.42
39.5 205.5 11.46
39.5 206.5 11.52
39.5 207.5 11.68
39.5 208.5 12.01
39.5 209.5 12.22
38.5 180.5 13.12
38.5 181.5 13.29
38.5 182.5 13.39
38.5 183.5 13.51
38.5 184.5 14.05
38.5 185.5 14
38.5 186.5 13.76
38.5 187.5 13.5
38.5 188.5 13.47
38.5 189.5 13.41
38.5 190.5 13.44
38.5 191.5 13.34
38.5 192.5 12.92
38.5 193.5 12.84
38.5 194.5 12.89
38.5 195.5 12.77
38.5 196.5 12.15
38.5 197.5 11.9
38.5 198.5 11.79
38.5 199.5 11.74
38.5 200.5 11.74
38.5 201.5 11.74
38.5 202.5 11.78
38.5 203.5 11.89
38.5 204.5 12.1
38.5 205.5 12.18
38.5 206.5 12.27
38.5 207.5 12.46
38.5 208.5 12.73
38.5 209.5 12.91
37.5 180.5 14.24
37.5 181.5 14.39
37.5 182.5 14.47
37.5 183.5 14.56
37.5 184.5 15.08
37.5 185.5 15.03
37.5 186.5 14.79
37.5 187.5 14.51
37.5 188.5 14.46
37.5 189.5 14.29
37.5 190.5 14.21
37.5 191.5 14
37.5 192.5 13.47
37.5 193.5 13.33
37.5 194.5 13.37
37.5 195.5 13.28
37.5 196.5 12.72
37.5 197.5 12.47
37.5 198.5 12.37
37.5 199.5 12.33
37.5 200.5 12.38
37.5 201.5 12.41
37.5 202.5 12.44
37.5 203.5 12.58
37.5 204.5 12.88
37.5 205.5 13.02
37.5 206.5 13.15
37.5 207.5 13.35
37.5 208.5 13.58
37.5 209.5 13.73
36.5 180.5 15.56
36.5 181.5 15.59
36.5 182.5 15.58
36.5 183.5 15.55
36.5 184.5 15.85
36.5 185.5 15.75
36.5 186.5 15.53
36.5 187.5 15.27
36.5 188.5 15.22
36.5 189.5 14.94
36.5 190.5 14.72
36.5 191.5 14.4
36.5 192.5 13.85
36.5 193.5 13.71
36.5 194.5 13.77
36.5 195.5 13.76
36.5 196.5 13.36
36.5 197.5 13.16
36.5 198.5 13.06
36.5 199.5 13.04
36.5 200.5 13.12
36.5 201.5 13.19
36.5 202.5 13.25
36.5 203.5 13.41
36.5 204.5 13.79
36.5 205.5 13.96
36.5 206.5 14.1
36.5 207.5 14.29
36.5 208.5 14.49
36.5 209.5 14.61
35.5 180.5 17.02
35.5 181.5 16.9
35.5 182.5 16.76
35.5 183.5 16.55
35.5 184.5 16.49
35.5 185.5 16.27
35.5 186.5 16.04
35.5 187.5 15.82
35.5 188.5 15.87
35.5 189.5 15.51
35.5 190.5 15.15
35.5 191.5 14.75
35.5 192.5 14.3
35.5 193.5 14.21
35.5 194.5 14.32
35.5 195.5 14.4
35.5 196.5 14.12
35.5 197.5 13.94
35.5 198.5 13.81
35.5 199.5 13.78
35.5 200.5 13.91
35.5 201.5 14.02
35.5 202.5 14.12
35.5 203.5 14.3
35.5 204.5 14.7
35.5 205.5 14.85
35.5 206.5 14.96
35.5 207.5 15.12
35.5 208.5 15.32
35.5 209.5 15.45
34.5 180.5 18.23
34.5 181.5 18.01
34.5 182.5 17.79
34.5 183.5 17.45
34.5 184.5 17.07
34.5 185.5 16.78
34.5 186.5 16.55
34.5 187.5 16.39
34.5 188.5 16.56
34.5 189.5 16.21
34.5 190.5 15.81
34.5 191.5 15.44
34.5 192.5 15.15
34.5 193.5 15.1
34.5 194.5 15.19
34.5 195.5 15.28
34.5 196.5 14.99
34.5 197.5 14.86
34.5 198.5 14.76
34.5 199.5 14.75
34.5 200.5 14.91
34.5 201.5 15.03
34.5 202.5 15.13
34.5 203.5 15.28
34.5 204.5 15.68
34.5 205.5 15.8
34.5 206.5 15.88
34.5 207.5 16
34.5 208.5 16.22
34.5 209.5 16.33
33.5 180.5 19.21
33.5 181.5 18.98
33.5 182.5 18.74
33.5 183.5 18.37
33.5 184.5 17.86
33.5 185.5 17.56
33.5 186.5 17.35
33.5 187.5 17.24
33.5 188.5 17.43
33.5 189.5 17.1
33.5 190.5 16.72
33.5 191.5 16.41
33.5 192.5 16.27
33.5 193.5 16.24
33.5 194.5 16.28
33.5 195.5 16.32
33.5 196.5 16.02
33.5 197.5 15.92
33.5 198.5 15.85
33.5 199.5 15.83
33.5 200.5 15.97
33.5 201.5 16.02
33.5 202.5 16.07
33.5 203.5 16.17
33.5 204.5 16.52
33.5 205.5 16.6
33.5 206.5 16.68
33.5 207.5 16.8
33.5 208.5 17.06
33.5 209.5 17.16
32.5 180.5 19.94
32.5 181.5 19.76
32.5 182.5 19.59
32.5 183.5 19.3
32.5 184.5 18.86
32.5 185.5 18.63
32.5 186.5 18.47
32.5 187.5 18.4
32.5 188.5 18.45
32.5 189.5 18.16
32.5 190.5 17.82
32.5 191.5 17.56
32.5 192.5 17.48
32.5 193.5 17.44
32.5 194.5 17.42
32.5 195.5 17.4
32.5 196.5 17.16
32.5 197.5 17.08
32.5 198.5 17.02
32.5 199.5 16.95
32.5 200.5 17.01
32.5 201.5 16.98
32.5 202.5 16.96
32.5 203.5 17
32.5 204.5 17.27
32.5 205.5 17.33
32.5 206.5 17.41
32.5 207.5 17.55
32.5 208.5 17.84
32.5 209.5 17.94
31.5 180.5 20.34
31.5 181.5 20.27
31.5 182.5 20.23
31.5 183.5 20.13
31.5 184.5 19.91
31.5 185.5 19.79
31.5 186.5 19.7
31.5 187.5 19.65
31.5 188.5 19.5
31.5 189.5 19.31
31.5 190.5 19.07
31.5 191.5 18.88
31.5 192.5 18.63
31.5 193.5 18.5
31.5 194.5 18.38
31.5 195.5 18.31
31.5 196.5 18.29
31.5 197.5 18.24
31.5 198.5 18.15
31.5 199.5 18.02
31.5 200.5 18.05
31.5 201.5 17.93
31.5 202.5 17.87
31.5 203.5 17.89
31.5 204.5 18.08
31.5 205.5 18.12
31.5 206.5 18.21
31.5 207.5 18.38
31.5 208.5 18.68
31.5 209.5 18.8
30.5 180.5 20.93
30.5 181.5 20.92
30.5 182.5 20.96
30.5 183.5 20.97
30.5 184.5 20.83
30.5 185.5 20.81
30.5 186.5 20.77
30.5 187.5 20.73
30.5 188.5 20.52
30.5 189.5 20.36
30.5 190.5 20.18
30.5 191.5 20.02
30.5 192.5 19.71
30.5 193.5 19.55
30.5 194.5 19.4
30.5 195.5 19.31
30.5 196.5 19.43
30.5 197.5 19.37
30.5 198.5 19.24
30.5 199.5 19.11
30.5 200.5 19.18
30.5 201.5 19.06
30.5 202.5 18.98
30.5 203.5 18.97
30.5 204.5 19.11
30.5 205.5 19.11
30.5 206.5 19.17
30.5 207.5 19.33
30.5 208.5 19.62
30.5 209.5 19.73
29.5 180.5 21.68
29.5 181.5 21.7
29.5 182.5 21.78
29.5 183.5 21.82
29.5 184.5 21.66
29.5 185.5 21.65
29.5 186.5 21.62
29.5 187.5 21.57
29.5 188.5 21.35
29.5 189.5 21.22
29.5 190.5 21.09
29.5 191.5 20.99
29.5 192.5 20.72
29.5 193.5 20.57
29.5 194.5 20.43
29.5 195.5 20.36
29.5 196.5 20.51
29.5 197.5 20.43
29.5 198.5 20.28
29.5 199.5 20.18
29.5 200.5 20.33
29.5 201.5 20.25
29.5 202.5 20.17
29.5 203.5 20.14
29.5 204.5 20.18
29.5 205.5 20.13
29.5 206.5 20.13
29.5 207.5 20.23
29.5 208.5 20.47
29.5 209.5 20.56
28.5 180.5 22.52
28.5 181.5 22.55
28.5 182.5 22.62
28.5 183.5 22.65
28.5 184.5 22.39
28.5 185.5 22.33
28.5 186.5 22.27
28.5 187.5 22.18
28.5 188.5 21.94
28.5 189.5 21.84
28.5 190.5 21.78
28.5 191.5 21.74
28.5 192.5 21.58
28.5 193.5 21.49
28.5 194.5 21.39
28.5 195.5 21.34
28.5 196.5 21.47
28.5 197.5 21.38
28.5 198.5 21.22
28.5 199.5 21.15
28.5 200.5 21.35
28.5 201.5 21.33
28.5 202.5 21.28
28.5 203.5 21.26
28.5 204.5 21.19
28.5 205.5 21.08
28.5 206.5 21.01
28.5 207.5 21.02
28.5 208.5 21.18
28.5 209.5 21.25
27.5 180.5 23.28
27.5 181.5 23.33
27.5 182.5 23.4
27.5 183.5 23.4
27.5 184.5 23.11
27.5 185.5 22.99
27.5 186.5 22.89
27.5 187.5 22.76
27.5 188.5 22.54
27.5 189.5 22.47
27.5 190.5 22.44
27.5 191.5 22.44
27.5 192.5 22.38
27.5 193.5 22.33
27.5 194.5 22.28
27.5 195.5 22.23
27.5 196.5 22.23
27.5 197.5 22.11
27.5 198.5 21.94
27.5 199.5 21.89
27.5 200.5 22.08
27.5 201.5 22.11
27.5 202.5 22.11
27.5 203.5 22.12
27.5 204.5 22.07
27.5 205.5 21.92
27.5 206.5 21.77
27.5 207.5 21.71
27.5 208.5 21.78
27.5 209.5 21.84
26.5 180.5 24.15
26.5 181.5 24.18
26.5 182.5 24.19
26.5 183.5 24.12
26.5 184.5 23.87
26.5 185.5 23.74
26.5 186.5 23.65
26.5 187.5 23.54
26.5 188.5 23.31
26.5 189.5 23.23
26.5 190.5 23.18
26.5 191.5 23.13
26.5 192.5 23.01
26.5 193.5 22.96
26.5 194.5 22.92
26.5 195.5 22.9
26.5 196.5 22.94
26.5 197.5 22.84
26.5 198.5 22.7
26.5 199.5 22.66
26.5 200.5 22.8
26.5 201.5 22.82
26.5 202.5 22.81
26.5 203.5 22.8
26.5 204.5 22.73
26.5 205.5 22.56
26.5 206.5 22.39
26.5 207.5 22.31
26.5 208.5 22.37
26.5 209.5 22.41
25.5 180.5 24.87
25.5 181.5 24.88
25.5 182.5 24.83
25.5 183.5 24.71
25.5 184.5 24.53
25.5 185.5 24.41
25.5 186.5 24.36
25.5 187.5 24.3
25.5 188.5 24.09
25.5 189.5 24
25.5 190.5 23.92
25.5 191.5 23.79
25.5 192.5 23.58
25.5 193.5 23.49
25.5 194.5 23.44
25.5 195.5 23.43
25.5 196.5 23.51
25.5 197.5 23.45
25.5 198.5 23.36
25.5 199.5 23.33
25.5 200.5 23.4
25.5 201.5 23.38
25.5 202.5 23.32
25.5 203.5 23.27
25.5 204.5 23.2
25.5 205.5 23.06
25.5 206.5 22.91
25.5 207.5 22.86
25.5 208.5 22.94
25.5 209.5 22.96
24.5 180.5 25.35
24.5 181.5 25.34
24.5 182.5 25.25
24.5 183.5 25.09
24.5 184.5 24.94
24.5 185.5 24.85
24.5 186.5 24.84
24.5 187.5 24.84
24.5 188.5 24.71
24.5 189.5 24.61
24.5 190.5 24.51
24.5 191.5 24.34
24.5 192.5 24.08
24.5 193.5 23.97
24.5 194.5 23.91
24.5 195.5 23.89
24.5 196.5 23.99
24.5 197.5 23.95
24.5 198.5 23.89
24.5 199.5 23.87
24.5 200.5 23.89
24.5 201.5 23.82
24.5 202.5 23.72
24.5 203.5 23.63
24.5 204.5 23.57
24.5 205.5 23.48
24.5 206.5 23.39
24.5 207.5 23.37
24.5 208.5 23.45
24.5 209.5 23.44
23.5 180.5 25.6
23.5 181.5 25.56
23.5 182.5 25.43
23.5 183.5 25.24
23.5 184.5 25.04
23.5 185.5 24.99
23.5 186.5 25.04
23.5 187.5 25.11
23.5 188.5 25.06
23.5 189.5 24.98
23.5 190.5 24.89
23.5 191.5 24.75
23.5 192.5 24.6
23.5 193.5 24.49
23.5 194.5 24.41
23.5 195.5 24.35
23.5 196.5 24.41
23.5 197.5 24.37
23.5 198.5 24.31
23.5 199.5 24.28
23.5 200.5 24.28
23.5 201.5 24.21
23.5 202.5 24.1
23.5 203.5 24.03
23.5 204.5 23.98
23.5 205.5 23.94
23.5 206.5 23.89
23.5 207.5 23.86
23.5 208.5 23.87
23.5 209.5 23.78
22.5 180.5 25.82
22.5 181.5 25.74
22.5 182.5 25.57
22.5 183.5 25.34
22.5 184.5 25.12
22.5 185.5 25.08
22.5 186.5 25.14
22.5 187.5 25.23
22.5 188.5 25.27
22.5 189.5 25.24
22.5 190.5 25.19
22.5 191.5 25.11
22.5 192.5 25.02
22.5 193.5 24.95
22.5 194.5 24.89
22.5 195.5 24.85
22.5 196.5 24.87
22.5 197.5 24.85
22.5 198.5 24.79
22.5 199.5 24.75
22.5 200.5 24.77
22.5 201.5 24.68
22.5 202.5 24.55
22.5 203.5 24.45
22.5 204.5 24.4
22.5 205.5 24.36
22.5 206.5 24.3
22.5 207.5 24.27
22.5 208.5 24.21
22.5 209.5 24.11
21.5 180.5 26.07
21.5 181.5 25.95
21.5 182.5 25.74
21.5 183.5 25.49
21.5 184.5 25.32
21.5 185.5 25.3
21.5 186.5 25.36
21.5 187.5 25.47
21.5 188.5 25.57
21.5 189.5 25.58
21.5 190.5 25.56
21.5 191.5 25.53
21.5 192.5 25.45
21.5 193.5 25.42
21.5 194.5 25.38
21.5 195.5 25.35
21.5 196.5 25.31
21.5 197.5 25.29
21.5 198.5 25.24
21.5 199.5 25.2
21.5 200.5 25.25
21.5 201.5 25.16
21.5 202.5 25.02
21.5 203.5 24.9
21.5 204.5 24.84
21.5 205.5 24.77
21.5 206.5 24.7
21.5 207.5 24.63
21.5 208.5 24.5
21.5 209.5 24.39
20.5 180.5 26.4
20.5 181.5 26.27
20.5 182.5 26.05
20.5 183.5 25.81
20.5 184.5 25.71
20.5 185.5 25.7
20.5 186.5 25.75
20.5 187.5 25.86
20.5 188.5 25.98
20.5 189.5 26
20.5 190.5 25.99
20.5 191.5 25.96
20.5 192.5 25.88
20.5 193.5 25.85
20.5 194.5 25.8
20.5 195.5 25.75
20.5 196.5 25.66
20.5 197.5 25.62
20.5 198.5 25.56
20.5 199.5 25.54
20.5 200.5 25.62
20.5 201.5 25.55
20.5 202.5 25.42
20.5 203.5 25.3
20.5 204.5 25.23
20.5 205.5 25.13
20.5 206.5 25.01
20.5 207.5 24.89
20.5 208.5 24.72
20.5 209.5 24.59
19.5 180.5 26.75
19.5 181.5 26.66
19.5 182.5 26.48
19.5 183.5 26.29
19.5 184.5 26.19
19.5 185.5 26.18
19.5 186.5 26.22
19.5 187.5 26.3
19.5 188.5 26.32
19.5 189.5 26.32
19.5 190.5 26.3
19.5 191.5 26.25
19.5 192.5 26.15
19.5 193.5 26.1
19.5 194.5 26.03
19.5 195.5 25.94
19.5 196.5 25.87
19.5 197.5 25.81
19.5 198.5 25.74
19.5 199.5 25.72
19.5 200.5 25.8
19.5 201.5 25.76
19.5 202.5 25.66
19.5 203.5 25.55
19.5 204.5 25.42
19.5 205.5 25.3
19.5 206.5 25.17
19.5 207.5 25.02
19.5 208.5 24.84
19.5 209.5 24.7
18.5 180.5 26.91
18.5 181.5 26.86
18.5 182.5 26.75
18.5 183.5 26.62
18.5 184.5 26.55
18.5 185.5 26.53
18.5 186.5 26.53
18.5 187.5 26.56
18.5 188.5 26.49
18.5 189.5 26.46
18.5 190.5 26.41
18.5 191.5 26.35
18.5 192.5 26.26
18.5 193.5 26.19
18.5 194.5 26.09
18.5 195.5 25.98
18.5 196.5 25.94
18.5 197.5 25.86
18.5 198.5 25.8
18.5 199.5 25.79
18.5 200.5 25.84
18.5 201.5 25.79
18.5 202.5 25.7
18.5 203.5 25.58
18.5 204.5 25.47
18.5 205.5 25.36
18.5 206.5 25.25
18.5 207.5 25.12
18.5 208.5 24.96
18.5 209.5 24.83
17.5 180.5 26.91
17.5 181.5 26.89
17.5 182.5 26.85
17.5 183.5 26.79
17.5 184.5 26.76
17.5 185.5 26.72
17.5 186.5 26.69
17.5 187.5 26.65
17.5 188.5 26.52
17.5 189.5 26.46
17.5 190.5 26.4
17.5 191.5 26.33
17.5 192.5 26.26
17.5 193.5 26.17
17.5 194.5 26.07
17.5 195.5 25.96
17.5 196.5 25.93
17.5 197.5 25.86
17.5 198.5 25.8
17.5 199.5 25.78
17.5 200.5 25.78
17.5 201.5 25.71
17.5 202.5 25.6
17.5 203.5 25.49
17.5 204.5 25.42
17.5 205.5 25.37
17.5 206.5 25.31
17.5 207.5 25.24
17.5 208.5 25.14
17.5 209.5 25.04
16.5 180.5 26.87
16.5 181.5 26.87
16.5 182.5 26.87
16.5 183.5 26.87
16.5 184.5 26.84
16.5 185.5 26.8
16.5 186.5 26.74
16.5 187.5 26.66
16.5 188.5 26.51
16.5 189.5 26.43
16.5 190.5 26.35
16.5 191.5 26.27
16.5 192.5 26.22
16.5 193.5 26.13
16.5 194.5 26.04
16.5 195.5 25.95
16.5 196.5 25.92
16.5 197.5 25.87
16.5 198.5 25.82
16.5 199.5 25.78
16.5 200.5 25.75
16.5 201.5 25.65
16.5 202.5 25.54
16.5 203.5 25.41
16.5 204.5 25.4
16.5 205.5 25.39
16.5 206.5 25.41
16.5 207.5 25.44
16.5 208.5 25.41
16.5 209.5 25.36
15.5 180.5 26.87
15.5 181.5 26.88
15.5 182.5 26.9
15.5 183.5 26.92
15.5 184.5 26.88
15.5 185.5 26.83
15.5 186.5 26.77
15.5 187.5 26.68
15.5 188.5 26.53
15.5 189.5 26.44
15.5 190.5 26.37
15.5 191.5 26.3
15.5 192.5 26.24
15.5 193.5 26.17
15.5 194.5 26.1
15.5 195.5 26.02
15.5 196.5 25.96
15.5 197.5 25.91
15.5 198.5 25.87
15.5 199.5 25.84
15.5 200.5 25.84
15.5 201.5 25.73
15.5 202.5 25.6
15.5 203.5 25.45
15.5 204.5 25.42
15.5 205.5 25.46
15.5 206.5 25.58
15.5 207.5 25.71
15.5 208.5 25.71
15.5 209.5 25.66
14.5 180.5 26.95
14.5 181.5 26.93
14.5 182.5 26.92
14.5 183.5 26.92
14.5 184.5 26.88
14.5 185.5 26.84
14.5 186.5 26.8
14.5 187.5 26.72
14.5 188.5 26.58
14.5 189.5 26.48
14.5 190.5 26.41
14.5 191.5 26.34
14.5 192.5 26.29
14.5 193.5 26.24
14.5 194.5 26.18
14.5 195.5 26.12
14.5 196.5 26.08
14.5 197.5 26.05
14.5 198.5 26.03
14.5 199.5 26.02
14.5 200.5 26.02
14.5 201.5 25.9
14.5 202.5 25.76
14.5 203.5 25.6
14.5 204.5 25.53
14.5 205.5 25.58
14.5 206.5 25.71
14.5 207.5 25.88
14.5 208.5 25.88
14.5 209.5 25.84
13.5 180.5 27.03
13.5 181.5 26.97
13.5 182.5 26.93
13.5 183.5 26.89
13.5 184.5 26.88
13.5 185.5 26.85
13.5 186.5 26.83
13.5 187.5 26.79
13.5 188.5 26.68
13.5 189.5 26.59
13.5 190.5 26.5
13.5 191.5 26.43
13.5 192.5 26.39
13.5 193.5 26.34
13.5 194.5 26.3
13.5 195.5 26.24
13.5 196.5 26.23
13.5 197.5 26.22
13.5 198.5 26.22
13.5 199.5 26.23
13.5 200.5 26.22
13.5 201.5 26.09
13.5 202.5 25.94
13.5 203.5 25.77
13.5 204.5 25.66
13.5 205.5 25.7
13.5 206.5 25.82
13.5 207.5 25.97
13.5 208.5 25.96
13.5 209.5 25.93
12.5 180.5 27.12
12.5 181.5 27.03
12.5 182.5 26.96
12.5 183.5 26.89
12.5 184.5 26.9
12.5 185.5 26.89
12.5 186.5 26.9
12.5 187.5 26.89
12.5 188.5 26.84
12.5 189.5 26.75
12.5 190.5 26.65
12.5 191.5 26.57
12.5 192.5 26.54
12.5 193.5 26.5
12.5 194.5 26.46
12.5 195.5 26.42
12.5 196.5 26.44
12.5 197.5 26.44
12.5 198.5 26.45
12.5 199.5 26.47
12.5 200.5 26.45
12.5 201.5 26.32
12.5 202.5 26.16
12.5 203.5 25.97
12.5 204.5 25.83
12.5 205.5 25.85
12.5 206.5 25.92
12.5 207.5 26.05
12.5 208.5 26.06
12.5 209.5 26.02
11.5 180.5 27.24
11.5 181.5 27.16
11.5 182.5 27.08
11.5 183.5 27
11.5 184.5 26.98
11.5 185.5 26.97
11.5 186.5 27.01
11.5 187.5 27.04
11.5 188.5 27.05
11.5 189.5 26.98
11.5 190.5 26.89
11.5 191.5 26.8
11.5 192.5 26.8
11.5 193.5 26.76
11.5 194.5 26.73
11.5 195.5 26.72
11.5 196.5 26.78
11.5 197.5 26.77
11.5 198.5 26.77
11.5 199.5 26.79
11.5 200.5 26.77
11.5 201.5 26.66
11.5 202.5 26.5
11.5 203.5 26.3
11.5 204.5 26.15
11.5 205.5 26.13
11.5 206.5 26.15
11.5 207.5 26.23
11.5 208.5 26.28
11.5 209.5 26.25
10.5 180.5 27.42
10.5 181.5 27.35
10.5 182.5 27.28
10.5 183.5 27.21
10.5 184.5 27.16
10.5 185.5 27.16
10.5 186.5 27.2
10.5 187.5 27.25
10.5 188.5 27.32
10.5 189.5 27.28
10.5 190.5 27.22
10.5 191.5 27.17
10.5 192.5 27.21
10.5 193.5 27.18
10.5 194.5 27.16
10.5 195.5 27.16
10.5 196.5 27.2
10.5 197.5 27.2
10.5 198.5 27.19
10.5 199.5 27.2
10.5 200.5 27.18
10.5 201.5 27.1
10.5 202.5 26.95
10.5 203.5 26.77
10.5 204.5 26.61
10.5 205.5 26.54
10.5 206.5 26.51
10.5 207.5 26.55
10.5 208.5 26.68
10.5 209.5 26.69
