39.5 180.5 10.9
39.5 181.5 10.82
39.5 182.5 10.77
39.5 183.5 10.86
39.5 184.5 10.83
39.5 185.5 10.74
39.5 186.5 10.49
39.5 187.5 10.32
39.5 188.5 10.18
39.5 189.5 10.13
39.5 190.5 9.96
39.5 191.5 9.87
39.5 192.5 9.98
39.5 193.5 10.01
39.5 194.5 9.99
39.5 195.5 9.93
39.5 196.5 10.13
39.5 197.5 10.02
39.5 198.5 9.96
39.5 199.5 9.99
39.5 200.5 9.85
39.5 201.5 9.86
39.5 202.5 9.84
39.5 203.5 9.88
39.5 204.5 9.94
39.5 205.5 9.91
39.5 206.5 9.81
39.5 207.5 9.85
39.5 208.5 10.28
39.5 209.5 10.49
38.5 180.5 12.19
38.5 181.5 12.11
38.5 182.5 12.08
38.5 183.5 12.15
38.5 184.5 11.95
38.5 185.5 11.79
38.5 186.5 11.52
38.5 187.5 11.35
38.5 188.5 11.16
38.5 189.5 11.09
38.5 190.5 10.91
38.5 191.5 10.8
38.5 192.5 10.92
38.5 193.5 10.95
38.5 194.5 10.93
38.5 195.5 10.87
38.5 196.5 11.07
38.5 197.5 10.92
38.5 198.5 10.83
38.5 199.5 10.86
38.5 200.5 10.75
38.5 201.5 10.74
38.5 202.5 10.69
38.5 203.5 10.7
38.5 204.5 10.7
38.5 205.5 10.67
38.5 206.5 10.58
38.5 207.5 10.6
38.5 208.5 11.02
38.5 209.5 11.22
37.5 180.5 13.27
37.5 181.5 13.13
37.5 182.5 13.1
37.5 183.5 13.12
37.5 184.5 12.78
37.5 185.5 12.56
37.5 186.5 12.29
37.5 187.5 12.11
37.5 188.5 11.89
37.5 189.5 11.79
37.5 190.5 11.6
37.5 191.5 11.5
37.5 192.5 11.63
37.5 193.5 11.68
37.5 194.5 11.69
37.5 195.5 11.65
37.5 196.5 11.85
37.5 197.5 11.72
37.5 198.5 11.64
37.5 199.5 11.67
37.5 200.5 11.58
37.5 201.5 11.55
37.5 202.5 11.48
37.5 203.5 11.46
37.5 204.5 11.44
37.5 205.5 11.42
37.5 206.5 11.36
37.5 207.5 11.4
37.5 208.5 11.81
37.5 209.5 11.99
36.5 180.5 14.02
36.5 181.5 13.8
36.5 182.5 13.77
36.5 183.5 13.76
36.5 184.5 13.37
36.5 185.5 13.1
36.5 186.5 12.81
36.5 187.5 12.61
36.5 188.5 12.4
36.5 189.5 12.29
36.5 190.5 12.11
36.5 191.5 12.04
36.5 192.5 12.21
36.5 193.5 12.29
36.5 194.5 12.32
36.5 195.5 12.33
36.5 196.5 12.49
36.5 197.5 12.41
36.5 198.5 12.35
36.5 199.5 12.38
36.5 200.5 12.29
36.5 201.5 12.27
36.5 202.5 12.19
36.5 203.5 12.16
36.5 204.5 12.19
36.5 205.5 12.2
36.5 206.5 12.17
36.5 207.5 12.24
36.5 208.5 12.66
36.5 209.5 12.83
35.5 180.5 14.64
35.5 181.5 14.43
35.5 182.5 14.46
35.5 183.5 14.49
35.5 184.5 14.17
35.5 185.5 13.88
35.5 186.5 13.56
35.5 187.5 13.31
35.5 188.5 12.94
35.5 189.5 12.81
35.5 190.5 12.66
35.5 191.5 12.62
35.5 192.5 12.79
35.5 193.5 12.91
35.5 194.5 12.99
35.5 195.5 13.05
35.5 196.5 13.17
35.5 197.5 13.15
35.5 198.5 13.14
35.5 199.5 13.17
35.5 200.5 13.15
35.5 201.5 13.09
35.5 202.5 13
35.5 203.5 12.96
35.5 204.5 13.03
35.5 205.5 13.07
35.5 206.5 13.07
35.5 207.5 13.18
35.5 208.5 13.55
35.5 209.5 13.7
34.5 180.5 14.83
34.5 181.5 14.67
34.5 182.5 14.72
34.5 183.5 14.79
34.5 184.5 14.64
34.5 185.5 14.34
34.5 186.5 14
34.5 187.5 13.7
34.5 188.5 13.41
34.5 189.5 13.31
34.5 190.5 13.26
34.5 191.5 13.31
34.5 192.5 13.49
34.5 193.5 13.63
34.5 194.5 13.74
34.5 195.5 13.83
34.5 196.5 13.93
34.5 197.5 13.93
34.5 198.5 13.93
34.5 199.5 13.97
34.5 200.5 13.84
34.5 201.5 13.78
34.5 202.5 13.73
34.5 203.5 13.74
34.5 204.5 13.92
34.5 205.5 14
34.5 206.5 14.06
34.5 207.5 14.2
34.5 208.5 14.55
34.5 209.5 14.67
33.5 180.5 15.07
33.5 181.5 15.02
33.5 182.5 15.09
33.5 183.5 15.18
33.5 184.5 15.18
33.5 185.5 14.89
33.5 186.5 14.53
33.5 187.5 14.2
33.5 188.5 13.96
33.5 189.5 13.92
33.5 190.5 13.98
33.5 191.5 14.11
33.5 192.5 14.29
33.5 193.5 14.43
33.5 194.5 14.55
33.5 195.5 14.64
33.5 196.5 14.69
33.5 197.5 14.69
33.5 198.5 14.7
33.5 199.5 14.74
33.5 200.5 14.57
33.5 201.5 14.53
33.5 202.5 14.51
33.5 203.5 14.57
33.5 204.5 14.8
33.5 205.5 14.93
33.5 206.5 15.03
33.5 207.5 15.18
33.5 208.5 15.45
33.5 209.5 15.54
32.5 180.5 15.48
32.5 181.5 15.56
32.5 182.5 15.66
32.5 183.5 15.76
32.5 184.5 15.82
32.5 185.5 15.52
32.5 186.5 15.15
32.5 187.5 14.82
32.5 188.5 14.62
32.5 189.5 14.66
32.5 190.5 14.82
32.5 191.5 15.02
32.5 192.5 15.15
32.5 193.5 15.29
32.5 194.5 15.39
32.5 195.5 15.44
32.5 196.5 15.43
32.5 197.5 15.42
32.5 198.5 15.45
32.5 199.5 15.51
32.5 200.5 15.36
32.5 201.5 15.35
32.5 202.5 15.36
32.5 203.5 15.43
32.5 204.5 15.65
32.5 205.5 15.8
32.5 206.5 15.93
32.5 207.5 16.06
32.5 208.5 16.21
32.5 209.5 16.26
31.5 180.5 16.31
31.5 181.5 16.46
31.5 182.5 16.57
31.5 183.5 16.64
31.5 184.5 16.64
31.5 185.5 16.35
31.5 186.5 16.01
31.5 187.5 15.73
31.5 188.5 15.58
31.5 189.5 15.72
31.5 190.5 15.97
31.5 191.5 16.21
31.5 192.5 16.25
31.5 193.5 16.36
31.5 194.5 16.45
31.5 195.5 16.47
31.5 196.5 16.35
31.5 197.5 16.34
31.5 198.5 16.41
31.5 199.5 16.51
31.5 200.5 16.47
31.5 201.5 16.46
31.5 202.5 16.47
31.5 203.5 16.51
31.5 204.5 16.54
31.5 205.5 16.7
31.5 206.5 16.85
31.5 207.5 16.98
31.5 208.5 17.03
31.5 209.5 17.04
30.5 180.5 16.98
30.5 181.5 17.05
30.5 182.5 17.1
30.5 183.5 17.08
30.5 184.5 16.99
30.5 185.5 16.73
30.5 186.5 16.49
30.5 187.5 16.38
30.5 188.5 16.54
30.5 189.5 16.81
30.5 190.5 17.13
30.5 191.5 17.43
30.5 192.5 17.47
30.5 193.5 17.62
30.5 194.5 17.72
30.5 195.5 17.74
30.5 196.5 17.59
30.5 197.5 17.6
30.5 198.5 17.7
30.5 199.5 17.81
30.5 200.5 17.69
30.5 201.5 17.69
30.5 202.5 17.7
30.5 203.5 17.69
30.5 204.5 17.54
30.5 205.5 17.66
30.5 206.5 17.82
30.5 207.5 17.97
30.5 208.5 18.02
30.5 209.5 18.04
29.5 180.5 17.87
29.5 181.5 17.83
29.5 182.5 17.79
29.5 183.5 17.67
29.5 184.5 17.51
29.5 185.5 17.3
29.5 186.5 17.19
29.5 187.5 17.26
29.5 188.5 17.61
29.5 189.5 17.94
29.5 190.5 18.26
29.5 191.5 18.56
29.5 192.5 18.64
29.5 193.5 18.83
29.5 194.5 18.97
29.5 195.5 19.04
29.5 196.5 18.91
29.5 197.5 18.94
29.5 198.5 19.06
29.5 199.5 19.15
29.5 200.5 18.88
29.5 201.5 18.88
29.5 202.5 18.91
29.5 203.5 18.86
29.5 204.5 18.57
29.5 205.5 18.66
29.5 206.5 18.83
29.5 207.5 19
29.5 208.5 19.06
29.5 209.5 19.08
28.5 180.5 18.94
28.5 181.5 18.83
28.5 182.5 18.74
28.5 183.5 18.56
28.5 184.5 18.41
28.5 185.5 18.28
28.5 186.5 18.32
28.5 187.5 18.5
28.5 188.5 18.8
28.5 189.5 19.07
28.5 190.5 19.32
28.5 191.5 19.54
28.5 192.5 19.63
28.5 193.5 19.86
28.5 194.5 20.05
28.5 195.5 20.19
28.5 196.5 20.08
28.5 197.5 20.13
28.5 198.5 20.23
28.5 199.5 20.3
28.5 200.5 19.88
28.5 201.5 19.89
28.5 202.5 19.92
28.5 203.5 19.85
28.5 204.5 19.54
28.5 205.5 19.62
28.5 206.5 19.8
28.5 207.5 20
28.5 208.5 20.04
28.5 209.5 20.05
27.5 180.5 20.09
27.5 181.5 20.02
27.5 182.5 19.98
27.5 183.5 19.86
27.5 184.5 19.73
27.5 185.5 19.68
27.5 186.5 19.8
27.5 187.5 19.99
27.5 188.5 19.94
27.5 189.5 20.08
27.5 190.5 20.22
27.5 191.5 20.33
27.5 192.5 20.42
27.5 193.5 20.66
27.5 194.5 20.9
27.5 195.5 21.12
27.5 196.5 21.09
27.5 197.5 21.09
27.5 198.5 21.16
27.5 199.5 21.2
27.5 200.5 20.73
27.5 201.5 20.72
27.5 202.5 20.7
27.5 203.5 20.59
27.5 204.5 20.32
27.5 205.5 20.44
27.5 206.5 20.68
27.5 207.5 20.94
27.5 208.5 21.04
27.5 209.5 21.06
26.5 180.5 21.17
26.5 181.5 21.17
26.5 182.5 21.2
26.5 183.5 21.14
26.5 184.5 20.97
26.5 185.5 20.95
26.5 186.5 21.08
26.5 187.5 21.21
26.5 188.5 20.99
26.5 189.5 21
26.5 190.5 21.02
26.5 191.5 21.02
26.5 192.5 21.11
26.5 193.5 21.32
26.5 194.5 21.58
26.5 195.5 21.82
26.5 196.5 21.86
26.5 197.5 21.81
26.5 198.5 21.79
26.5 199.5 21.78
26.5 200.5 21.3
26.5 201.5 21.29
26.5 202.5 21.27
26.5 203.5 21.18
26.5 204.5 21.05
26.5 205.5 21.2
26.5 206.5 21.43
26.5 207.5 21.69
26.5 208.5 21.77
26.5 209.5 21.76
25.5 180.5 22.21
25.5 181.5 22.3
25.5 182.5 22.4
25.5 183.5 22.42
25.5 184.5 22.19
25.5 185.5 22.16
25.5 186.5 22.26
25.5 187.5 22.29
25.5 188.5 21.97
25.5 189.5 21.89
25.5 190.5 21.82
25.5 191.5 21.75
25.5 192.5 21.87
25.5 193.5 22.05
25.5 194.5 22.29
25.5 195.5 22.52
25.5 196.5 22.61
25.5 197.5 22.49
25.5 198.5 22.38
25.5 199.5 22.29
25.5 200.5 21.89
25.5 201.5 21.88
25.5 202.5 21.87
25.5 203.5 21.82
25.5 204.5 21.76
25.5 205.5 21.93
25.5 206.5 22.15
25.5 207.5 22.37
25.5 208.5 22.42
25.5 209.5 22.36
24.5 180.5 23.09
24.5 181.5 23.24
24.5 182.5 23.4
24.5 183.5 23.49
24.5 184.5 23.21
24.5 185.5 23.14
24.5 186.5 23.16
24.5 187.5 23.09
24.5 188.5 22.76
24.5 189.5 22.65
24.5 190.5 22.57
24.5 191.5 22.53
24.5 192.5 22.72
24.5 193.5 22.87
24.5 194.5 23.04
24.5 195.5 23.2
24.5 196.5 23.33
24.5 197.5 23.16
24.5 198.5 22.98
24.5 199.5 22.85
24.5 200.5 22.61
24.5 201.5 22.59
24.5 202.5 22.57
24.5 203.5 22.53
24.5 204.5 22.51
24.5 205.5 22.66
24.5 206.5 22.84
24.5 207.5 23
24.5 208.5 22.99
24.5 209.5 22.89
23.5 180.5 23.65
23.5 181.5 23.82
23.5 182.5 24.04
23.5 183.5 24.18
23.5 184.5 23.95
23.5 185.5 23.84
23.5 186.5 23.75
23.5 187.5 23.57
23.5 188.5 23.3
23.5 189.5 23.2
23.5 190.5 23.17
23.5 191.5 23.25
23.5 192.5 23.6
23.5 193.5 23.73
23.5 194.5 23.78
23.5 195.5 23.81
23.5 196.5 23.86
23.5 197.5 23.72
23.5 198.5 23.58
23.5 199.5 23.5
23.5 200.5 23.47
23.5 201.5 23.4
23.5 202.5 23.31
23.5 203.5 23.22
23.5 204.5 23.16
23.5 205.5 23.23
23.5 206.5 23.33
23.5 207.5 23.41
23.5 208.5 23.39
23.5 209.5 23.31
22.5 180.5 24.16
22.5 181.5 24.3
22.5 182.5 24.51
22.5 183.5 24.66
22.5 184.5 24.51
22.5 185.5 24.42
22.5 186.5 24.31
22.5 187.5 24.11
22.5 188.5 23.9
22.5 189.5 23.81
22.5 190.5 23.8
22.5 191.5 23.91
22.5 192.5 24.16
22.5 193.5 24.25
22.5 194.5 24.23
22.5 195.5 24.16
22.5 196.5 24.14
22.5 197.5 24.02
22.5 198.5 23.89
22.5 199.5 23.86
22.5 200.5 23.98
22.5 201.5 23.92
22.5 202.5 23.83
22.5 203.5 23.72
22.5 204.5 23.63
22.5 205.5 23.65
22.5 206.5 23.67
22.5 207.5 23.67
22.5 208.5 23.62
22.5 209.5 23.53
21.5 180.5 24.69
21.5 181.5 24.79
21.5 182.5 24.95
21.5 183.5 25.08
21.5 184.5 25.01
21.5 185.5 24.96
21.5 186.5 24.88
21.5 187.5 24.7
21.5 188.5 24.53
21.5 189.5 24.45
21.5 190.5 24.43
21.5 191.5 24.5
21.5 192.5 24.59
21.5 193.5 24.61
21.5 194.5 24.53
21.5 195.5 24.41
21.5 196.5 24.34
21.5 197.5 24.23
21.5 198.5 24.15
21.5 199.5 24.17
21.5 200.5 24.36
21.5 201.5 24.32
21.5 202.5 24.23
21.5 203.5 24.1
21.5 204.5 23.96
21.5 205.5 23.91
21.5 206.5 23.86
21.5 207.5 23.8
21.5 208.5 23.78
21.5 209.5 23.71
20.5 180.5 25.27
20.5 181.5 25.34
20.5 182.5 25.43
20.5 183.5 25.51
20.5 184.5 25.45
20.5 185.5 25.44
20.5 186.5 25.4
20.5 187.5 25.27
20.5 188.5 25.13
20.5 189.5 25.06
20.5 190.5 25.02
20.5 191.5 25.03
20.5 192.5 25
20.5 193.5 24.95
20.5 194.5 24.83
20.5 195.5 24.69
20.5 196.5 24.58
20.5 197.5 24.51
20.5 198.5 24.48
20.5 199.5 24.53
20.5 200.5 24.68
20.5 201.5 24.63
20.5 202.5 24.51
20.5 203.5 24.35
20.5 204.5 24.2
20.5 205.5 24.08
20.5 206.5 23.98
20.5 207.5 23.9
20.5 208.5 23.95
20.5 209.5 23.91
19.5 180.5 25.82
19.5 181.5 25.86
19.5 182.5 25.89
19.5 183.5 25.89
19.5 184.5 25.75
19.5 185.5 25.74
19.5 186.5 25.73
19.5 187.5 25.66
19.5 188.5 25.57
19.5 189.5 25.5
19.5 190.5 25.43
19.5 191.5 25.41
19.5 192.5 25.41
19.5 193.5 25.33
19.5 194.5 25.23
19.5 195.5 25.12
19.5 196.5 25.02
19.5 197.5 24.98
19.5 198.5 24.96
19.5 199.5 24.95
19.5 200.5 24.96
19.5 201.5 24.86
19.5 202.5 24.7
19.5 203.5 24.52
19.5 204.5 24.44
19.5 205.5 24.29
19.5 206.5 24.15
19.5 207.5 24.07
19.5 208.5 24.14
19.5 209.5 24.1
18.5 180.5 26.26
18.5 181.5 26.25
18.5 182.5 26.21
18.5 183.5 26.13
18.5 184.5 25.96
18.5 185.5 25.94
18.5 186.5 25.95
18.5 187.5 25.91
18.5 188.5 25.85
18.5 189.5 25.78
18.5 190.5 25.73
18.5 191.5 25.69
18.5 192.5 25.7
18.5 193.5 25.62
18.5 194.5 25.54
18.5 195.5 25.44
18.5 196.5 25.34
18.5 197.5 25.29
18.5 198.5 25.25
18.5 199.5 25.19
18.5 200.5 25.09
18.5 201.5 24.96
18.5 202.5 24.8
18.5 203.5 24.65
18.5 204.5 24.66
18.5 205.5 24.56
18.5 206.5 24.45
18.5 207.5 24.38
18.5 208.5 24.38
18.5 209.5 24.32
17.5 180.5 26.48
17.5 181.5 26.41
17.5 182.5 26.32
17.5 183.5 26.19
17.5 184.5 26.05
17.5 185.5 26.04
17.5 186.5 26.06
17.5 187.5 26.04
17.5 188.5 26
17.5 189.5 25.94
17.5 190.5 25.9
17.5 191.5 25.88
17.5 192.5 25.87
17.5 193.5 25.79
17.5 194.5 25.72
17.5 195.5 25.64
17.5 196.5 25.54
17.5 197.5 25.48
17.5 198.5 25.39
17.5 199.5 25.3
17.5 200.5 25.15
17.5 201.5 25.03
17.5 202.5 24.9
17.5 203.5 24.79
17.5 204.5 24.87
17.5 205.5 24.82
17.5 206.5 24.76
17.5 207.5 24.7
17.5 208.5 24.62
17.5 209.5 24.55
16.5 180.5 26.5
16.5 181.5 26.39
16.5 182.5 26.28
16.5 183.5 26.16
16.5 184.5 26.11
16.5 185.5 26.12
16.5 186.5 26.15
16.5 187.5 26.14
16.5 188.5 26.13
16.5 189.5 26.1
16.5 190.5 26.07
16.5 191.5 26.05
16.5 192.5 26.01
16.5 193.5 25.93
16.5 194.5 25.86
16.5 195.5 25.77
16.5 196.5 25.68
16.5 197.5 25.59
16.5 198.5 25.48
16.5 199.5 25.37
16.5 200.5 25.25
16.5 201.5 25.16
16.5 202.5 25.07
16.5 203.5 25.02
16.5 204.5 25.12
16.5 205.5 25.11
16.5 206.5 25.07
16.5 207.5 25.01
16.5 208.5 24.89
16.5 209.5 24.8
15.5 180.5 26.44
15.5 181.5 26.35
15.5 182.5 26.27
15.5 183.5 26.21
15.5 184.5 26.22
15.5 185.5 26.24
15.5 186.5 26.26
15.5 187.5 26.28
15.5 188.5 26.31
15.5 189.5 26.29
15.5 190.5 26.29
15.5 191.5 26.28
15.5 192.5 26.23
15.5 193.5 26.15
15.5 194.5 26.05
15.5 195.5 25.93
15.5 196.5 25.81
15.5 197.5 25.69
15.5 198.5 25.56
15.5 199.5 25.46
15.5 200.5 25.47
15.5 201.5 25.41
15.5 202.5 25.34
15.5 203.5 25.33
15.5 204.5 25.42
15.5 205.5 25.42
15.5 206.5 25.37
15.5 207.5 25.27
15.5 208.5 25.14
15.5 209.5 25.04
14.5 180.5 26.54
14.5 181.5 26.46
14.5 182.5 26.4
14.5 183.5 26.37
14.5 184.5 26.42
14.5 185.5 26.44
14.5 186.5 26.45
14.5 187.5 26.46
14.5 188.5 26.5
14.5 189.5 26.49
14.5 190.5 26.49
14.5 191.5 26.5
14.5 192.5 26.48
14.5 193.5 26.42
14.5 194.5 26.32
14.5 195.5 26.19
14.5 196.5 26.04
14.5 197.5 25.91
14.5 198.5 25.76
14.5 199.5 25.66
14.5 200.5 25.69
14.5 201.5 25.64
14.5 202.5 25.61
14.5 203.5 25.62
14.5 204.5 25.67
14.5 205.5 25.68
14.5 206.5 25.63
14.5 207.5 25.53
14.5 208.5 25.37
14.5 209.5 25.29
13.5 180.5 26.72
13.5 181.5 26.67
13.5 182.5 26.63
13.5 183.5 26.61
13.5 184.5 26.65
13.5 185.5 26.66
13.5 186.5 26.65
13.5 187.5 26.63
13.5 188.5 26.66
13.5 189.5 26.65
13.5 190.5 26.65
13.5 191.5 26.68
13.5 192.5 26.72
13.5 193.5 26.7
13.5 194.5 26.62
13.5 195.5 26.5
13.5 196.5 26.33
13.5 197.5 26.2
13.5 198.5 26.05
13.5 199.5 25.93
13.5 200.5 25.93
13.5 201.5 25.88
13.5 202.5 25.86
13.5 203.5 25.87
13.5 204.5 25.87
13.5 205.5 25.89
13.5 206.5 25.86
13.5 207.5 25.78
13.5 208.5 25.65
13.5 209.5 25.6
12.5 180.5 26.97
12.5 181.5 26.95
12.5 182.5 26.93
12.5 183.5 26.91
12.5 184.5 26.9
12.5 185.5 26.89
12.5 186.5 26.85
12.5 187.5 26.82
12.5 188.5 26.81
12.5 189.5 26.79
12.5 190.5 26.78
12.5 191.5 26.81
12.5 192.5 26.89
12.5 193.5 26.91
12.5 194.5 26.87
12.5 195.5 26.77
12.5 196.5 26.63
12.5 197.5 26.51
12.5 198.5 26.37
12.5 199.5 26.24
12.5 200.5 26.18
12.5 201.5 26.12
12.5 202.5 26.09
12.5 203.5 26.07
12.5 204.5 26.05
12.5 205.5 26.07
12.5 206.5 26.07
12.5 207.5 26.04
12.5 208.5 25.99
12.5 209.5 25.99
11.5 180.5 27.24
11.5 181.5 27.24
11.5 182.5 27.22
11.5 183.5 27.2
11.5 184.5 27.2
11.5 185.5 27.16
11.5 186.5 27.11
11.5 187.5 27.05
11.5 188.5 27
11.5 189.5 26.95
11.5 190.5 26.91
11.5 191.5 26.92
11.5 192.5 26.97
11.5 193.5 27
11.5 194.5 26.99
11.5 195.5 26.96
11.5 196.5 26.89
11.5 197.5 26.79
11.5 198.5 26.68
11.5 199.5 26.57
11.5 200.5 26.5
11.5 201.5 26.42
11.5 202.5 26.34
11.5 203.5 26.26
11.5 204.5 26.22
11.5 205.5 26.22
11.5 206.5 26.26
11.5 207.5 26.33
11.5 208.5 26.44
11.5 209.5 26.52
10.5 180.5 27.55
10.5 181.5 27.55
10.5 182.5 27.53
10.5 183.5 27.51
10.5 184.5 27.5
10.5 185.5 27.48
10.5 186.5 27.42
10.5 187.5 27.35
10.5 188.5 27.27
10.5 189.5 27.21
10.5 190.5 27.14
10.5 191.5 27.1
10.5 192.5 27.12
10.5 193.5 27.14
10.5 194.5 27.14
10.5 195.5 27.13
10.5 196.5 27.12
10.5 197.5 27.05
10.5 198.5 26.97
10.5 199.5 26.89
10.5 200.5 26.82
10.5 201.5 26.74
10.5 202.5 26.65
10.5 203.5 26.55
10.5 204.5 26.5
10.5 205.5 26.51
10.5 206.5 26.57
10.5 207.5 26.68
10.5 208.5 26.87
10.5 209.5 26.96
