39.5 180.5 12.7
39.5 181.5 12.81
39.5 182.5 12.88
39.5 183.5 12.98
39.5 184.5 13.22
39.5 185.5 13.09
39.5 186.5 12.81
39.5 187.5 12.52
39.5 188.5 12.44
39.5 189.5 12.46
39.5 190.5 12.58
39.5 191.5 12.6
39.5 192.5 12.36
39.5 193.5 12.37
39.5 194.5 12.49
39.5 195.5 12.47
39.5 196.5 11.89
39.5 197.5 11.74
39.5 198.5 11.7
39.5 199.5 11.66
39.5 200.5 11.61
39.5 201.5 11.67
39.5 202.5 11.79
39.5 203.5 11.98
39.5 204.5 12.28
39.5 205.5 12.42
39.5 206.5 12.57
39.5 207.5 12.82
39.5 208.5 13.18
39.5 209.5 13.44
38.5 180.5 13.7
38.5 181.5 13.89
38.5 182.5 14.01
38.5 183.5 14.16
38.5 184.5 14.54
38.5 185.5 14.43
38.5 186.5 14.14
38.5 187.5 13.83
38.5 188.5 13.69
38.5 189.5 13.65
38.5 190.5 13.72
38.5 191.5 13.66
38.5 192.5 13.24
38.5 193.5 13.18
38.5 194.5 13.27
38.5 195.5 13.21
38.5 196.5 12.52
38.5 197.5 12.32
38.5 198.5 12.25
38.5 199.5 12.22
38.5 200.5 12.23
38.5 201.5 12.32
38.5 202.5 12.43
38.5 203.5 12.63
38.5 204.5 13
38.5 205.5 13.18
38.5 206.5 13.36
38.5 207.5 13.64
38.5 208.5 13.95
38.5 209.5 14.2
37.5 180.5 14.8
37.5 181.5 14.99
37.5 182.5 15.1
37.5 183.5 15.21
37.5 184.5 15.61
37.5 185.5 15.5
37.5 186.5 15.22
37.5 187.5 14.89
37.5 188.5 14.7
37.5 189.5 14.56
37.5 190.5 14.54
37.5 191.5 14.39
37.5 192.5 13.82
37.5 193.5 13.71
37.5 194.5 13.78
37.5 195.5 13.73
37.5 196.5 13.11
37.5 197.5 12.92
37.5 198.5 12.84
37.5 199.5 12.84
37.5 200.5 12.94
37.5 201.5 13.05
37.5 202.5 13.17
37.5 203.5 13.38
37.5 204.5 13.83
37.5 205.5 14.05
37.5 206.5 14.26
37.5 207.5 14.54
37.5 208.5 14.8
37.5 209.5 15.03
36.5 180.5 16.06
36.5 181.5 16.14
36.5 182.5 16.18
36.5 183.5 16.17
36.5 184.5 16.41
36.5 185.5 16.25
36.5 186.5 16
36.5 187.5 15.69
36.5 188.5 15.48
36.5 189.5 15.24
36.5 190.5 15.1
36.5 191.5 14.84
36.5 192.5 14.24
36.5 193.5 14.11
36.5 194.5 14.2
36.5 195.5 14.23
36.5 196.5 13.81
36.5 197.5 13.66
36.5 198.5 13.59
36.5 199.5 13.6
36.5 200.5 13.79
36.5 201.5 13.94
36.5 202.5 14.08
36.5 203.5 14.31
36.5 204.5 14.8
36.5 205.5 15.04
36.5 206.5 15.24
36.5 207.5 15.49
36.5 208.5 15.7
36.5 209.5 15.9
35.5 180.5 17.47
35.5 181.5 17.39
35.5 182.5 17.3
35.5 183.5 17.12
35.5 184.5 16.97
35.5 185.5 16.73
35.5 186.5 16.5
35.5 187.5 16.26
35.5 188.5 16.12
35.5 189.5 15.79
35.5 190.5 15.49
35.5 191.5 15.14
35.5 192.5 14.66
35.5 193.5 14.59
35.5 194.5 14.73
35.5 195.5 14.85
35.5 196.5 14.66
35.5 197.5 14.56
35.5 198.5 14.48
35.5 199.5 14.51
35.5 200.5 14.79
35.5 201.5 14.97
35.5 202.5 15.14
35.5 203.5 15.38
35.5 204.5 15.77
35.5 205.5 15.95
35.5 206.5 16.08
35.5 207.5 16.25
35.5 208.5 16.5
35.5 209.5 16.7
34.5 180.5 18.65
34.5 181.5 18.47
34.5 182.5 18.29
34.5 183.5 17.98
34.5 184.5 17.56
34.5 185.5 17.26
34.5 186.5 17.03
34.5 187.5 16.85
34.5 188.5 16.89
34.5 189.5 16.54
34.5 190.5 16.2
34.5 191.5 15.86
34.5 192.5 15.57
34.5 193.5 15.55
34.5 194.5 15.67
34.5 195.5 15.8
34.5 196.5 15.69
34.5 197.5 15.63
34.5 198.5 15.6
34.5 199.5 15.64
34.5 200.5 15.9
34.5 201.5 16.08
34.5 202.5 16.24
34.5 203.5 16.45
34.5 204.5 16.76
34.5 205.5 16.93
34.5 206.5 17.05
34.5 207.5 17.18
34.5 208.5 17.42
34.5 209.5 17.59
33.5 180.5 19.59
33.5 181.5 19.41
33.5 182.5 19.21
33.5 183.5 18.88
33.5 184.5 18.37
33.5 185.5 18.07
33.5 186.5 17.85
33.5 187.5 17.72
33.5 188.5 17.83
33.5 189.5 17.51
33.5 190.5 17.16
33.5 191.5 16.86
33.5 192.5 16.79
33.5 193.5 16.8
33.5 194.5 16.86
33.5 195.5 16.94
33.5 196.5 16.84
33.5 197.5 16.82
33.5 198.5 16.82
33.5 199.5 16.86
33.5 200.5 16.99
33.5 201.5 17.1
33.5 202.5 17.19
33.5 203.5 17.34
33.5 204.5 17.56
33.5 205.5 17.72
33.5 206.5 17.86
33.5 207.5 18.02
33.5 208.5 18.26
33.5 209.5 18.41
32.5 180.5 20.29
32.5 181.5 20.16
32.5 182.5 20.03
32.5 183.5 19.79
32.5 184.5 19.36
32.5 185.5 19.13
32.5 186.5 18.96
32.5 187.5 18.86
32.5 188.5 18.94
32.5 189.5 18.64
32.5 190.5 18.31
32.5 191.5 18.04
32.5 192.5 18.12
32.5 193.5 18.12
32.5 194.5 18.13
32.5 195.5 18.15
32.5 196.5 18.04
32.5 197.5 18.05
32.5 198.5 18.06
32.5 199.5 18.06
32.5 200.5 18.02
32.5 201.5 18.02
32.5 202.5 18.04
32.5 203.5 18.1
32.5 204.5 18.25
32.5 205.5 18.4
32.5 206.5 18.56
32.5 207.5 18.76
32.5 208.5 19.05
32.5 209.5 19.18
31.5 180.5 20.65
31.5 181.5 20.63
31.5 182.5 20.64
31.5 183.5 20.6
31.5 184.5 20.44
31.5 185.5 20.32
31.5 186.5 20.2
31.5 187.5 20.14
31.5 188.5 20
31.5 189.5 19.79
31.5 190.5 19.53
31.5 191.5 19.31
31.5 192.5 19.28
31.5 193.5 19.19
31.5 194.5 19.11
31.5 195.5 19.08
31.5 196.5 19.14
31.5 197.5 19.12
31.5 198.5 19.07
31.5 199.5 18.99
31.5 200.5 18.78
31.5 201.5 18.74
31.5 202.5 18.74
31.5 203.5 18.8
31.5 204.5 19.01
31.5 205.5 19.14
31.5 206.5 19.3
31.5 207.5 19.54
31.5 208.5 19.83
31.5 209.5 19.96
30.5 180.5 21.22
30.5 181.5 21.27
30.5 182.5 21.37
30.5 183.5 21.46
30.5 184.5 21.44
30.5 185.5 21.41
30.5 186.5 21.34
30.5 187.5 21.27
30.5 188.5 21.07
30.5 189.5 20.87
30.5 190.5 20.63
30.5 191.5 20.44
30.5 192.5 20.32
30.5 193.5 20.21
30.5 194.5 20.1
30.5 195.5 20.04
30.5 196.5 20.14
30.5 197.5 20.09
30.5 198.5 19.99
30.5 199.5 19.88
30.5 200.5 19.77
30.5 201.5 19.72
30.5 202.5 19.7
30.5 203.5 19.75
30.5 204.5 19.97
30.5 205.5 20.06
30.5 206.5 20.2
30.5 207.5 20.43
30.5 208.5 20.7
30.5 209.5 20.81
29.5 180.5 21.96
29.5 181.5 22.05
29.5 182.5 22.19
29.5 183.5 22.32
29.5 184.5 22.33
29.5 185.5 22.32
29.5 186.5 22.26
29.5 187.5 22.18
29.5 188.5 21.92
29.5 189.5 21.74
29.5 190.5 21.55
29.5 191.5 21.41
29.5 192.5 21.25
29.5 193.5 21.15
29.5 194.5 21.04
29.5 195.5 20.98
29.5 196.5 21.07
29.5 197.5 20.99
29.5 198.5 20.85
29.5 199.5 20.75
29.5 200.5 20.82
29.5 201.5 20.8
29.5 202.5 20.79
29.5 203.5 20.82
29.5 204.5 21.03
29.5 205.5 21.07
29.5 206.5 21.15
29.5 207.5 21.32
29.5 208.5 21.49
29.5 209.5 21.57
28.5 180.5 22.82
28.5 181.5 22.9
28.5 182.5 23.03
28.5 183.5 23.14
28.5 184.5 23.08
28.5 185.5 23.03
28.5 186.5 22.95
28.5 187.5 22.83
28.5 188.5 22.52
28.5 189.5 22.36
28.5 190.5 22.23
28.5 191.5 22.16
28.5 192.5 22.01
28.5 193.5 21.96
28.5 194.5 21.88
28.5 195.5 21.84
28.5 196.5 21.91
28.5 197.5 21.81
28.5 198.5 21.65
28.5 199.5 21.57
28.5 200.5 21.81
28.5 201.5 21.85
28.5 202.5 21.87
28.5 203.5 21.92
28.5 204.5 22.08
28.5 205.5 22.05
28.5 206.5 22.05
28.5 207.5 22.12
28.5 208.5 22.17
28.5 209.5 22.22
27.5 180.5 23.63
27.5 181.5 23.71
27.5 182.5 23.81
27.5 183.5 23.87
27.5 184.5 23.74
27.5 185.5 23.63
27.5 186.5 23.53
27.5 187.5 23.38
27.5 188.5 23.12
27.5 189.5 22.97
27.5 190.5 22.87
27.5 191.5 22.81
27.5 192.5 22.72
27.5 193.5 22.7
27.5 194.5 22.66
27.5 195.5 22.62
27.5 196.5 22.65
27.5 197.5 22.51
27.5 198.5 22.33
27.5 199.5 22.26
27.5 200.5 22.58
27.5 201.5 22.7
27.5 202.5 22.81
27.5 203.5 22.92
27.5 204.5 23.1
27.5 205.5 23
27.5 206.5 22.9
27.5 207.5 22.86
27.5 208.5 22.82
27.5 209.5 22.84
26.5 180.5 24.5
26.5 181.5 24.54
26.5 182.5 24.58
26.5 183.5 24.54
26.5 184.5 24.38
26.5 185.5 24.26
26.5 186.5 24.17
26.5 187.5 24.06
26.5 188.5 23.83
26.5 189.5 23.69
26.5 190.5 23.6
26.5 191.5 23.51
26.5 192.5 23.34
26.5 193.5 23.3
26.5 194.5 23.27
26.5 195.5 23.24
26.5 196.5 23.3
26.5 197.5 23.2
26.5 198.5 23.05
26.5 199.5 22.99
26.5 200.5 23.26
26.5 201.5 23.36
26.5 202.5 23.44
26.5 203.5 23.53
26.5 204.5 23.65
26.5 205.5 23.54
26.5 206.5 23.41
26.5 207.5 23.35
26.5 208.5 23.34
26.5 209.5 23.35
25.5 180.5 25.2
25.5 181.5 25.21
25.5 182.5 25.19
25.5 183.5 25.09
25.5 184.5 24.94
25.5 185.5 24.83
25.5 186.5 24.77
25.5 187.5 24.71
25.5 188.5 24.52
25.5 189.5 24.39
25.5 190.5 24.28
25.5 191.5 24.14
25.5 192.5 23.89
25.5 193.5 23.8
25.5 194.5 23.75
25.5 195.5 23.72
25.5 196.5 23.81
25.5 197.5 23.74
25.5 198.5 23.64
25.5 199.5 23.61
25.5 200.5 23.78
25.5 201.5 23.82
25.5 202.5 23.85
25.5 203.5 23.89
25.5 204.5 23.97
25.5 205.5 23.88
25.5 206.5 23.77
25.5 207.5 23.74
25.5 208.5 23.8
25.5 209.5 23.8
24.5 180.5 25.63
24.5 181.5 25.63
24.5 182.5 25.56
24.5 183.5 25.42
24.5 184.5 25.27
24.5 185.5 25.18
24.5 186.5 25.17
24.5 187.5 25.16
24.5 188.5 25.03
24.5 189.5 24.91
24.5 190.5 24.8
24.5 191.5 24.62
24.5 192.5 24.36
24.5 193.5 24.24
24.5 194.5 24.17
24.5 195.5 24.13
24.5 196.5 24.23
24.5 197.5 24.18
24.5 198.5 24.11
24.5 199.5 24.08
24.5 200.5 24.14
24.5 201.5 24.14
24.5 202.5 24.11
24.5 203.5 24.1
24.5 204.5 24.15
24.5 205.5 24.11
24.5 206.5 24.04
24.5 207.5 24.04
24.5 208.5 24.16
24.5 209.5 24.15
23.5 180.5 25.83
23.5 181.5 25.82
23.5 182.5 25.73
23.5 183.5 25.56
23.5 184.5 25.37
23.5 185.5 25.3
23.5 186.5 25.33
23.5 187.5 25.38
23.5 188.5 25.32
23.5 189.5 25.23
23.5 190.5 25.13
23.5 191.5 24.99
23.5 192.5 24.83
23.5 193.5 24.72
23.5 194.5 24.65
23.5 195.5 24.58
23.5 196.5 24.61
23.5 197.5 24.54
23.5 198.5 24.45
23.5 199.5 24.4
23.5 200.5 24.42
23.5 201.5 24.38
23.5 202.5 24.33
23.5 203.5 24.3
23.5 204.5 24.37
23.5 205.5 24.37
23.5 206.5 24.35
23.5 207.5 24.37
23.5 208.5 24.42
23.5 209.5 24.37
22.5 180.5 25.98
22.5 181.5 25.95
22.5 182.5 25.84
22.5 183.5 25.64
22.5 184.5 25.43
22.5 185.5 25.36
22.5 186.5 25.39
22.5 187.5 25.46
22.5 188.5 25.46
22.5 189.5 25.42
22.5 190.5 25.36
22.5 191.5 25.27
22.5 192.5 25.19
22.5 193.5 25.13
22.5 194.5 25.07
22.5 195.5 25.03
22.5 196.5 25.05
22.5 197.5 24.99
22.5 198.5 24.9
22.5 199.5 24.82
22.5 200.5 24.83
22.5 201.5 24.76
22.5 202.5 24.66
22.5 203.5 24.59
22.5 204.5 24.61
22.5 205.5 24.6
22.5 206.5 24.59
22.5 207.5 24.61
22.5 208.5 24.61
22.5 209.5 24.55
21.5 180.5 26.19
21.5 181.5 26.13
21.5 182.5 25.98
21.5 183.5 25.77
21.5 184.5 25.61
21.5 185.5 25.55
21.5 186.5 25.58
21.5 187.5 25.66
21.5 188.5 25.71
21.5 189.5 25.71
21.5 190.5 25.69
21.5 191.5 25.65
21.5 192.5 25.59
21.5 193.5 25.55
21.5 194.5 25.51
21.5 195.5 25.48
21.5 196.5 25.45
21.5 197.5 25.4
21.5 198.5 25.31
21.5 199.5 25.23
21.5 200.5 25.25
21.5 201.5 25.16
21.5 202.5 25.03
21.5 203.5 24.93
21.5 204.5 24.9
21.5 205.5 24.87
21.5 206.5 24.83
21.5 207.5 24.83
21.5 208.5 24.77
21.5 209.5 24.69
20.5 180.5 26.5
20.5 181.5 26.43
20.5 182.5 26.26
20.5 183.5 26.07
20.5 184.5 25.97
20.5 185.5 25.92
20.5 186.5 25.93
20.5 187.5 26.02
20.5 188.5 26.1
20.5 189.5 26.12
20.5 190.5 26.11
20.5 191.5 26.08
20.5 192.5 25.99
20.5 193.5 25.95
20.5 194.5 25.9
20.5 195.5 25.84
20.5 196.5 25.76
20.5 197.5 25.69
20.5 198.5 25.59
20.5 199.5 25.52
20.5 200.5 25.58
20.5 201.5 25.5
20.5 202.5 25.37
20.5 203.5 25.25
20.5 204.5 25.2
20.5 205.5 25.13
20.5 206.5 25.06
20.5 207.5 24.99
20.5 208.5 24.88
20.5 209.5 24.76
19.5 180.5 26.84
19.5 181.5 26.81
19.5 182.5 26.68
19.5 183.5 26.53
19.5 184.5 26.44
19.5 185.5 26.38
19.5 186.5 26.38
19.5 187.5 26.44
19.5 188.5 26.47
19.5 189.5 26.47
19.5 190.5 26.44
19.5 191.5 26.39
19.5 192.5 26.25
19.5 193.5 26.19
19.5 194.5 26.1
19.5 195.5 26
19.5 196.5 25.9
19.5 197.5 25.81
19.5 198.5 25.71
19.5 199.5 25.66
19.5 200.5 25.75
19.5 201.5 25.69
19.5 202.5 25.59
19.5 203.5 25.47
19.5 204.5 25.39
19.5 205.5 25.29
19.5 206.5 25.19
19.5 207.5 25.09
19.5 208.5 24.93
19.5 209.5 24.79
18.5 180.5 26.98
18.5 181.5 26.98
18.5 182.5 26.91
18.5 183.5 26.82
18.5 184.5 26.75
18.5 185.5 26.7
18.5 186.5 26.68
18.5 187.5 26.7
18.5 188.5 26.66
18.5 189.5 26.63
18.5 190.5 26.57
18.5 191.5 26.48
18.5 192.5 26.35
18.5 193.5 26.25
18.5 194.5 26.13
18.5 195.5 25.99
18.5 196.5 25.92
18.5 197.5 25.81
18.5 198.5 25.73
18.5 199.5 25.7
18.5 200.5 25.79
18.5 201.5 25.73
18.5 202.5 25.63
18.5 203.5 25.51
18.5 204.5 25.4
18.5 205.5 25.3
18.5 206.5 25.21
18.5 207.5 25.1
18.5 208.5 24.93
18.5 209.5 24.79
17.5 180.5 26.98
17.5 181.5 27.01
17.5 182.5 27
17.5 183.5 26.97
17.5 184.5 26.94
17.5 185.5 26.89
17.5 186.5 26.85
17.5 187.5 26.82
17.5 188.5 26.7
17.5 189.5 26.64
17.5 190.5 26.55
17.5 191.5 26.45
17.5 192.5 26.33
17.5 193.5 26.21
17.5 194.5 26.08
17.5 195.5 25.93
17.5 196.5 25.88
17.5 197.5 25.78
17.5 198.5 25.72
17.5 199.5 25.7
17.5 200.5 25.74
17.5 201.5 25.66
17.5 202.5 25.55
17.5 203.5 25.43
17.5 204.5 25.32
17.5 205.5 25.24
17.5 206.5 25.18
17.5 207.5 25.11
17.5 208.5 24.99
17.5 209.5 24.91
16.5 180.5 26.95
16.5 181.5 26.99
16.5 182.5 27.02
16.5 183.5 27.04
16.5 184.5 27.04
16.5 185.5 26.98
16.5 186.5 26.91
16.5 187.5 26.85
16.5 188.5 26.68
16.5 189.5 26.58
16.5 190.5 26.48
16.5 191.5 26.36
16.5 192.5 26.26
16.5 193.5 26.14
16.5 194.5 26.02
16.5 195.5 25.9
16.5 196.5 25.89
16.5 197.5 25.82
16.5 198.5 25.77
16.5 199.5 25.75
16.5 200.5 25.73
16.5 201.5 25.63
16.5 202.5 25.51
16.5 203.5 25.38
16.5 204.5 25.26
16.5 205.5 25.21
16.5 206.5 25.2
16.5 207.5 25.21
16.5 208.5 25.19
16.5 209.5 25.17
15.5 180.5 26.97
15.5 181.5 27
15.5 182.5 27.04
15.5 183.5 27.09
15.5 184.5 27.07
15.5 185.5 27.02
15.5 186.5 26.96
15.5 187.5 26.88
15.5 188.5 26.69
15.5 189.5 26.57
15.5 190.5 26.46
15.5 191.5 26.34
15.5 192.5 26.27
15.5 193.5 26.17
15.5 194.5 26.09
15.5 195.5 26.01
15.5 196.5 25.96
15.5 197.5 25.9
15.5 198.5 25.87
15.5 199.5 25.85
15.5 200.5 25.85
15.5 201.5 25.74
15.5 202.5 25.61
15.5 203.5 25.44
15.5 204.5 25.26
15.5 205.5 25.22
15.5 206.5 25.28
15.5 207.5 25.41
15.5 208.5 25.48
15.5 209.5 25.51
14.5 180.5 27.07
14.5 181.5 27.06
14.5 182.5 27.06
14.5 183.5 27.07
14.5 184.5 27.04
14.5 185.5 27.01
14.5 186.5 26.97
14.5 187.5 26.9
14.5 188.5 26.75
14.5 189.5 26.62
14.5 190.5 26.5
14.5 191.5 26.38
14.5 192.5 26.33
14.5 193.5 26.25
14.5 194.5 26.18
14.5 195.5 26.12
14.5 196.5 26.1
14.5 197.5 26.05
14.5 198.5 26.03
14.5 199.5 26.03
14.5 200.5 26.01
14.5 201.5 25.9
14.5 202.5 25.76
14.5 203.5 25.58
14.5 204.5 25.36
14.5 205.5 25.32
14.5 206.5 25.39
14.5 207.5 25.54
14.5 208.5 25.64
14.5 209.5 25.7
13.5 180.5 27.17
13.5 181.5 27.11
13.5 182.5 27.07
13.5 183.5 27.04
13.5 184.5 27.01
13.5 185.5 26.99
13.5 186.5 26.98
13.5 187.5 26.95
13.5 188.5 26.86
13.5 189.5 26.73
13.5 190.5 26.61
13.5 191.5 26.48
13.5 192.5 26.44
13.5 193.5 26.36
13.5 194.5 26.31
13.5 195.5 26.26
13.5 196.5 26.23
13.5 197.5 26.19
13.5 198.5 26.18
13.5 199.5 26.19
13.5 200.5 26.16
13.5 201.5 26.04
13.5 202.5 25.9
13.5 203.5 25.72
13.5 204.5 25.49
13.5 205.5 25.42
13.5 206.5 25.46
13.5 207.5 25.59
13.5 208.5 25.68
13.5 209.5 25.75
12.5 180.5 27.25
12.5 181.5 27.17
12.5 182.5 27.1
12.5 183.5 27.02
12.5 184.5 27.01
12.5 185.5 27.01
12.5 186.5 27.03
12.5 187.5 27.04
12.5 188.5 27.02
12.5 189.5 26.9
12.5 190.5 26.77
12.5 191.5 26.63
12.5 192.5 26.59
12.5 193.5 26.51
12.5 194.5 26.47
12.5 195.5 26.43
12.5 196.5 26.4
12.5 197.5 26.36
12.5 198.5 26.35
12.5 199.5 26.38
12.5 200.5 26.33
12.5 201.5 26.22
12.5 202.5 26.08
12.5 203.5 25.89
12.5 204.5 25.64
12.5 205.5 25.54
12.5 206.5 25.52
12.5 207.5 25.61
12.5 208.5 25.7
12.5 209.5 25.75
11.5 180.5 27.38
11.5 181.5 27.3
11.5 182.5 27.22
11.5 183.5 27.14
11.5 184.5 27.12
11.5 185.5 27.12
11.5 186.5 27.17
11.5 187.5 27.21
11.5 188.5 27.25
11.5 189.5 27.14
11.5 190.5 27.01
11.5 191.5 26.87
11.5 192.5 26.81
11.5 193.5 26.73
11.5 194.5 26.69
11.5 195.5 26.68
11.5 196.5 26.66
11.5 197.5 26.63
11.5 198.5 26.62
11.5 199.5 26.65
11.5 200.5 26.64
11.5 201.5 26.57
11.5 202.5 26.43
11.5 203.5 26.24
11.5 204.5 25.94
11.5 205.5 25.79
11.5 206.5 25.71
11.5 207.5 25.75
11.5 208.5 25.86
11.5 209.5 25.9
10.5 180.5 27.54
10.5 181.5 27.48
10.5 182.5 27.42
10.5 183.5 27.36
10.5 184.5 27.32
10.5 185.5 27.32
10.5 186.5 27.38
10.5 187.5 27.42
10.5 188.5 27.49
10.5 189.5 27.39
10.5 190.5 27.29
10.5 191.5 27.17
10.5 192.5 27.14
10.5 193.5 27.08
10.5 194.5 27.06
10.5 195.5 27.07
10.5 196.5 27.07
10.5 197.5 27.06
10.5 198.5 27.05
10.5 199.5 27.08
10.5 200.5 27.12
10.5 201.5 27.07
10.5 202.5 26.94
10.5 203.5 26.76
10.5 204.5 26.47
10.5 205.5 26.27
10.5 206.5 26.13
10.5 207.5 26.12
10.5 208.5 26.3
10.5 209.5 26.37
