39.5 180.5 16.71
39.5 181.5 16.68
39.5 182.5 16.79
39.5 183.5 16.89
39.5 184.5 17.17
39.5 185.5 17.28
39.5 186.5 17.47
39.5 187.5 17.61
39.5 188.5 17.76
39.5 189.5 17.86
39.5 190.5 18.01
39.5 191.5 18.14
39.5 192.5 18.06
39.5 193.5 18.11
39.5 194.5 18.19
39.5 195.5 18.25
39.5 196.5 18.05
39.5 197.5 18.25
39.5 198.5 18.52
39.5 199.5 18.78
39.5 200.5 18.94
39.5 201.5 19.21
39.5 202.5 19.46
39.5 203.5 19.68
39.5 204.5 19.86
39.5 205.5 20.05
39.5 206.5 20.27
39.5 207.5 20.44
39.5 208.5 20.53
39.5 209.5 20.52
38.5 180.5 18.07
38.5 181.5 18.13
38.5 182.5 18.22
38.5 183.5 18.27
38.5 184.5 18.47
38.5 185.5 18.53
38.5 186.5 18.72
38.5 187.5 18.83
38.5 188.5 18.77
38.5 189.5 18.84
38.5 190.5 18.99
38.5 191.5 19.09
38.5 192.5 18.78
38.5 193.5 18.78
38.5 194.5 18.82
38.5 195.5 18.88
38.5 196.5 18.72
38.5 197.5 18.93
38.5 198.5 19.19
38.5 199.5 19.44
38.5 200.5 19.69
38.5 201.5 19.93
38.5 202.5 20.15
38.5 203.5 20.33
38.5 204.5 20.44
38.5 205.5 20.59
38.5 206.5 20.76
38.5 207.5 20.9
38.5 208.5 20.94
38.5 209.5 20.9
37.5 180.5 19.3
37.5 181.5 19.41
37.5 182.5 19.5
37.5 183.5 19.5
37.5 184.5 19.5
37.5 185.5 19.5
37.5 186.5 19.67
37.5 187.5 19.75
37.5 188.5 19.47
37.5 189.5 19.5
37.5 190.5 19.65
37.5 191.5 19.75
37.5 192.5 19.33
37.5 193.5 19.3
37.5 194.5 19.33
37.5 195.5 19.41
37.5 196.5 19.42
37.5 197.5 19.66
37.5 198.5 19.9
37.5 199.5 20.13
37.5 200.5 20.41
37.5 201.5 20.61
37.5 202.5 20.78
37.5 203.5 20.92
37.5 204.5 20.97
37.5 205.5 21.09
37.5 206.5 21.22
37.5 207.5 21.31
37.5 208.5 21.31
37.5 209.5 21.27
36.5 180.5 20.33
36.5 181.5 20.42
36.5 182.5 20.5
36.5 183.5 20.46
36.5 184.5 20.26
36.5 185.5 20.23
36.5 186.5 20.38
36.5 187.5 20.43
36.5 188.5 20.03
36.5 189.5 20.03
36.5 190.5 20.15
36.5 191.5 20.24
36.5 192.5 19.84
36.5 193.5 19.82
36.5 194.5 19.87
36.5 195.5 19.99
36.5 196.5 20.2
36.5 197.5 20.45
36.5 198.5 20.64
36.5 199.5 20.82
36.5 200.5 21.09
36.5 201.5 21.24
36.5 202.5 21.39
36.5 203.5 21.51
36.5 204.5 21.53
36.5 205.5 21.61
36.5 206.5 21.69
36.5 207.5 21.73
36.5 208.5 21.7
36.5 209.5 21.64
35.5 180.5 21.31
35.5 181.5 21.29
35.5 182.5 21.28
35.5 183.5 21.18
35.5 184.5 20.75
35.5 185.5 20.71
35.5 186.5 20.84
35.5 187.5 20.88
35.5 188.5 20.56
35.5 189.5 20.5
35.5 190.5 20.53
35.5 191.5 20.55
35.5 192.5 20.34
35.5 193.5 20.38
35.5 194.5 20.49
35.5 195.5 20.71
35.5 196.5 21.06
35.5 197.5 21.27
35.5 198.5 21.41
35.5 199.5 21.54
35.5 200.5 21.75
35.5 201.5 21.87
35.5 202.5 21.97
35.5 203.5 22.07
35.5 204.5 22.11
35.5 205.5 22.15
35.5 206.5 22.19
35.5 207.5 22.19
35.5 208.5 22.12
35.5 209.5 22.06
34.5 180.5 22.02
34.5 181.5 21.95
34.5 182.5 21.91
34.5 183.5 21.79
34.5 184.5 21.29
34.5 185.5 21.24
34.5 186.5 21.34
34.5 187.5 21.39
34.5 188.5 21.19
34.5 189.5 21.16
34.5 190.5 21.19
34.5 191.5 21.2
34.5 192.5 21.12
34.5 193.5 21.16
34.5 194.5 21.27
34.5 195.5 21.45
34.5 196.5 21.78
34.5 197.5 21.94
34.5 198.5 22.04
34.5 199.5 22.13
34.5 200.5 22.28
34.5 201.5 22.35
34.5 202.5 22.42
34.5 203.5 22.48
34.5 204.5 22.5
34.5 205.5 22.53
34.5 206.5 22.55
34.5 207.5 22.54
34.5 208.5 22.45
34.5 209.5 22.38
33.5 180.5 22.78
33.5 181.5 22.7
33.5 182.5 22.65
33.5 183.5 22.52
33.5 184.5 22.02
33.5 185.5 21.95
33.5 186.5 22.01
33.5 187.5 22.05
33.5 188.5 21.96
33.5 189.5 21.96
33.5 190.5 21.99
33.5 191.5 21.99
33.5 192.5 22
33.5 193.5 22.02
33.5 194.5 22.08
33.5 195.5 22.19
33.5 196.5 22.43
33.5 197.5 22.53
33.5 198.5 22.6
33.5 199.5 22.67
33.5 200.5 22.73
33.5 201.5 22.74
33.5 202.5 22.75
33.5 203.5 22.76
33.5 204.5 22.77
33.5 205.5 22.81
33.5 206.5 22.83
33.5 207.5 22.83
33.5 208.5 22.77
33.5 209.5 22.69
32.5 180.5 23.54
32.5 181.5 23.5
32.5 182.5 23.45
32.5 183.5 23.32
32.5 184.5 22.97
32.5 185.5 22.86
32.5 186.5 22.86
32.5 187.5 22.86
32.5 188.5 22.85
32.5 189.5 22.85
32.5 190.5 22.85
32.5 191.5 22.84
32.5 192.5 22.88
32.5 193.5 22.87
32.5 194.5 22.87
32.5 195.5 22.9
32.5 196.5 23.01
32.5 197.5 23.04
32.5 198.5 23.09
32.5 199.5 23.13
32.5 200.5 23.13
32.5 201.5 23.08
32.5 202.5 23.03
32.5 203.5 23
32.5 204.5 23.01
32.5 205.5 23.05
32.5 206.5 23.09
32.5 207.5 23.11
32.5 208.5 23.1
32.5 209.5 23.02
31.5 180.5 24.1
31.5 181.5 24.13
31.5 182.5 24.12
31.5 183.5 24.08
31.5 184.5 24.02
31.5 185.5 23.96
31.5 186.5 23.91
31.5 187.5 23.85
31.5 188.5 23.81
31.5 189.5 23.74
31.5 190.5 23.69
31.5 191.5 23.64
31.5 192.5 23.64
31.5 193.5 23.59
31.5 194.5 23.55
31.5 195.5 23.51
31.5 196.5 23.49
31.5 197.5 23.48
31.5 198.5 23.51
31.5 199.5 23.54
31.5 200.5 23.47
31.5 201.5 23.4
31.5 202.5 23.36
31.5 203.5 23.32
31.5 204.5 23.29
31.5 205.5 23.32
31.5 206.5 23.35
31.5 207.5 23.36
31.5 208.5 23.37
31.5 209.5 23.29
30.5 180.5 24.56
30.5 181.5 24.63
30.5 182.5 24.68
30.5 183.5 24.75
30.5 184.5 24.95
30.5 185.5 24.93
30.5 186.5 24.85
30.5 187.5 24.72
30.5 188.5 24.63
30.5 189.5 24.51
30.5 190.5 24.42
30.5 191.5 24.35
30.5 192.5 24.33
30.5 193.5 24.26
30.5 194.5 24.2
30.5 195.5 24.1
30.5 196.5 23.98
30.5 197.5 23.94
30.5 198.5 23.95
30.5 199.5 23.94
30.5 200.5 23.84
30.5 201.5 23.76
30.5 202.5 23.7
30.5 203.5 23.63
30.5 204.5 23.57
30.5 205.5 23.57
30.5 206.5 23.59
30.5 207.5 23.6
30.5 208.5 23.62
30.5 209.5 23.55
29.5 180.5 24.97
29.5 181.5 25.06
29.5 182.5 25.17
29.5 183.5 25.32
29.5 184.5 25.65
29.5 185.5 25.67
29.5 186.5 25.58
29.5 187.5 25.42
29.5 188.5 25.29
29.5 189.5 25.13
29.5 190.5 25.01
29.5 191.5 24.94
29.5 192.5 24.92
29.5 193.5 24.83
29.5 194.5 24.76
29.5 195.5 24.65
29.5 196.5 24.48
29.5 197.5 24.41
29.5 198.5 24.39
29.5 199.5 24.35
29.5 200.5 24.23
29.5 201.5 24.13
29.5 202.5 24.06
29.5 203.5 23.96
29.5 204.5 23.88
29.5 205.5 23.86
29.5 206.5 23.87
29.5 207.5 23.87
29.5 208.5 23.9
29.5 209.5 23.84
28.5 180.5 25.41
28.5 181.5 25.52
28.5 182.5 25.66
28.5 183.5 25.83
28.5 184.5 26.11
28.5 185.5 26.14
28.5 186.5 26.05
28.5 187.5 25.9
28.5 188.5 25.75
28.5 189.5 25.58
28.5 190.5 25.47
28.5 191.5 25.41
28.5 192.5 25.43
28.5 193.5 25.36
28.5 194.5 25.27
28.5 195.5 25.16
28.5 196.5 24.96
28.5 197.5 24.87
28.5 198.5 24.81
28.5 199.5 24.73
28.5 200.5 24.6
28.5 201.5 24.49
28.5 202.5 24.4
28.5 203.5 24.3
28.5 204.5 24.24
28.5 205.5 24.21
28.5 206.5 24.21
28.5 207.5 24.2
28.5 208.5 24.24
28.5 209.5 24.18
27.5 180.5 25.94
27.5 181.5 26.07
27.5 182.5 26.22
27.5 183.5 26.37
27.5 184.5 26.47
27.5 185.5 26.47
27.5 186.5 26.39
27.5 187.5 26.27
27.5 188.5 26.13
27.5 189.5 26
27.5 190.5 25.92
27.5 191.5 25.91
27.5 192.5 25.96
27.5 193.5 25.9
27.5 194.5 25.79
27.5 195.5 25.66
27.5 196.5 25.48
27.5 197.5 25.35
27.5 198.5 25.24
27.5 199.5 25.09
27.5 200.5 24.95
27.5 201.5 24.85
27.5 202.5 24.77
27.5 203.5 24.7
27.5 204.5 24.66
27.5 205.5 24.61
27.5 206.5 24.57
27.5 207.5 24.53
27.5 208.5 24.53
27.5 209.5 24.49
26.5 180.5 26.48
26.5 181.5 26.64
26.5 182.5 26.78
26.5 183.5 26.88
26.5 184.5 26.91
26.5 185.5 26.88
26.5 186.5 26.81
26.5 187.5 26.69
26.5 188.5 26.59
26.5 189.5 26.51
26.5 190.5 26.45
26.5 191.5 26.45
26.5 192.5 26.47
26.5 193.5 26.4
26.5 194.5 26.27
26.5 195.5 26.1
26.5 196.5 25.86
26.5 197.5 25.7
26.5 198.5 25.55
26.5 199.5 25.37
26.5 200.5 25.24
26.5 201.5 25.13
26.5 202.5 25.06
26.5 203.5 25
26.5 204.5 25.01
26.5 205.5 24.96
26.5 206.5 24.9
26.5 207.5 24.84
26.5 208.5 24.82
26.5 209.5 24.78
25.5 180.5 26.96
25.5 181.5 27.12
25.5 182.5 27.24
25.5 183.5 27.32
25.5 184.5 27.33
25.5 185.5 27.31
25.5 186.5 27.24
25.5 187.5 27.14
25.5 188.5 27.05
25.5 189.5 26.98
25.5 190.5 26.94
25.5 191.5 26.92
25.5 192.5 26.87
25.5 193.5 26.76
25.5 194.5 26.61
25.5 195.5 26.42
25.5 196.5 26.15
25.5 197.5 25.96
25.5 198.5 25.79
25.5 199.5 25.6
25.5 200.5 25.51
25.5 201.5 25.41
25.5 202.5 25.33
25.5 203.5 25.28
25.5 204.5 25.34
25.5 205.5 25.27
25.5 206.5 25.19
25.5 207.5 25.09
25.5 208.5 25.05
25.5 209.5 24.99
24.5 180.5 27.31
24.5 181.5 27.45
24.5 182.5 27.53
24.5 183.5 27.6
24.5 184.5 27.64
24.5 185.5 27.62
24.5 186.5 27.55
24.5 187.5 27.45
24.5 188.5 27.34
24.5 189.5 27.27
24.5 190.5 27.23
24.5 191.5 27.19
24.5 192.5 27.09
24.5 193.5 26.95
24.5 194.5 26.79
24.5 195.5 26.61
24.5 196.5 26.35
24.5 197.5 26.17
24.5 198.5 26
24.5 199.5 25.82
24.5 200.5 25.75
24.5 201.5 25.66
24.5 202.5 25.58
24.5 203.5 25.52
24.5 204.5 25.59
24.5 205.5 25.5
24.5 206.5 25.38
24.5 207.5 25.24
24.5 208.5 25.17
24.5 209.5 25.08
23.5 180.5 27.49
23.5 181.5 27.6
23.5 182.5 27.67
23.5 183.5 27.75
23.5 184.5 27.78
23.5 185.5 27.71
23.5 186.5 27.6
23.5 187.5 27.48
23.5 188.5 27.43
23.5 189.5 27.38
23.5 190.5 27.32
23.5 191.5 27.24
23.5 192.5 27.11
23.5 193.5 26.94
23.5 194.5 26.78
23.5 195.5 26.64
23.5 196.5 26.51
23.5 197.5 26.38
23.5 198.5 26.26
23.5 199.5 26.13
23.5 200.5 26.03
23.5 201.5 25.93
23.5 202.5 25.83
23.5 203.5 25.71
23.5 204.5 25.68
23.5 205.5 25.56
23.5 206.5 25.42
23.5 207.5 25.28
23.5 208.5 25.26
23.5 209.5 25.17
22.5 180.5 27.59
22.5 181.5 27.67
22.5 182.5 27.75
22.5 183.5 27.83
22.5 184.5 27.83
22.5 185.5 27.73
22.5 186.5 27.58
22.5 187.5 27.42
22.5 188.5 27.35
22.5 189.5 27.3
22.5 190.5 27.26
22.5 191.5 27.22
22.5 192.5 27.17
22.5 193.5 27.03
22.5 194.5 26.91
22.5 195.5 26.8
22.5 196.5 26.79
22.5 197.5 26.71
22.5 198.5 26.62
22.5 199.5 26.51
22.5 200.5 26.36
22.5 201.5 26.23
22.5 202.5 26.08
22.5 203.5 25.92
22.5 204.5 25.86
22.5 205.5 25.73
22.5 206.5 25.62
22.5 207.5 25.51
22.5 208.5 25.54
22.5 209.5 25.44
21.5 180.5 27.7
21.5 181.5 27.78
21.5 182.5 27.85
21.5 183.5 27.92
21.5 184.5 27.88
21.5 185.5 27.74
21.5 186.5 27.57
21.5 187.5 27.39
21.5 188.5 27.31
21.5 189.5 27.28
21.5 190.5 27.27
21.5 191.5 27.29
21.5 192.5 27.34
21.5 193.5 27.25
21.5 194.5 27.15
21.5 195.5 27.07
21.5 196.5 27.11
21.5 197.5 27.06
21.5 198.5 26.99
21.5 199.5 26.88
21.5 200.5 26.72
21.5 201.5 26.57
21.5 202.5 26.38
21.5 203.5 26.19
21.5 204.5 26.12
21.5 205.5 26
21.5 206.5 25.89
21.5 207.5 25.82
21.5 208.5 25.86
21.5 209.5 25.76
20.5 180.5 27.85
20.5 181.5 27.91
20.5 182.5 27.97
20.5 183.5 28.03
20.5 184.5 27.96
20.5 185.5 27.81
20.5 186.5 27.62
20.5 187.5 27.44
20.5 188.5 27.37
20.5 189.5 27.37
20.5 190.5 27.39
20.5 191.5 27.44
20.5 192.5 27.56
20.5 193.5 27.5
20.5 194.5 27.42
20.5 195.5 27.34
20.5 196.5 27.36
20.5 197.5 27.3
20.5 198.5 27.24
20.5 199.5 27.15
20.5 200.5 27.02
20.5 201.5 26.87
20.5 202.5 26.69
20.5 203.5 26.49
20.5 204.5 26.41
20.5 205.5 26.29
20.5 206.5 26.19
20.5 207.5 26.14
20.5 208.5 26.15
20.5 209.5 26.05
19.5 180.5 28.07
19.5 181.5 28.1
19.5 182.5 28.13
19.5 183.5 28.17
19.5 184.5 28.09
19.5 185.5 27.95
19.5 186.5 27.78
19.5 187.5 27.63
19.5 188.5 27.54
19.5 189.5 27.57
19.5 190.5 27.61
19.5 191.5 27.66
19.5 192.5 27.7
19.5 193.5 27.65
19.5 194.5 27.59
19.5 195.5 27.5
19.5 196.5 27.43
19.5 197.5 27.34
19.5 198.5 27.27
19.5 199.5 27.2
19.5 200.5 27.14
19.5 201.5 27.02
19.5 202.5 26.86
19.5 203.5 26.69
19.5 204.5 26.64
19.5 205.5 26.55
19.5 206.5 26.47
19.5 207.5 26.41
19.5 208.5 26.32
19.5 209.5 26.19
18.5 180.5 28.26
18.5 181.5 28.25
18.5 182.5 28.25
18.5 183.5 28.26
18.5 184.5 28.15
18.5 185.5 28.05
18.5 186.5 27.92
18.5 187.5 27.81
18.5 188.5 27.72
18.5 189.5 27.74
18.5 190.5 27.77
18.5 191.5 27.79
18.5 192.5 27.78
18.5 193.5 27.71
18.5 194.5 27.63
18.5 195.5 27.53
18.5 196.5 27.42
18.5 197.5 27.31
18.5 198.5 27.21
18.5 199.5 27.13
18.5 200.5 27.09
18.5 201.5 27.02
18.5 202.5 26.91
18.5 203.5 26.81
18.5 204.5 26.79
18.5 205.5 26.71
18.5 206.5 26.64
18.5 207.5 26.58
18.5 208.5 26.4
18.5 209.5 26.25
17.5 180.5 28.42
17.5 181.5 28.37
17.5 182.5 28.33
17.5 183.5 28.3
17.5 184.5 28.17
17.5 185.5 28.11
17.5 186.5 28.04
17.5 187.5 27.97
17.5 188.5 27.89
17.5 189.5 27.88
17.5 190.5 27.89
17.5 191.5 27.87
17.5 192.5 27.82
17.5 193.5 27.73
17.5 194.5 27.63
17.5 195.5 27.52
17.5 196.5 27.41
17.5 197.5 27.29
17.5 198.5 27.17
17.5 199.5 27.08
17.5 200.5 27.03
17.5 201.5 26.99
17.5 202.5 26.93
17.5 203.5 26.89
17.5 204.5 26.89
17.5 205.5 26.84
17.5 206.5 26.79
17.5 207.5 26.72
17.5 208.5 26.49
17.5 209.5 26.34
16.5 180.5 28.52
16.5 181.5 28.45
16.5 182.5 28.37
16.5 183.5 28.33
16.5 184.5 28.17
16.5 185.5 28.16
16.5 186.5 28.13
16.5 187.5 28.1
16.5 188.5 28.03
16.5 189.5 28
16.5 190.5 27.98
16.5 191.5 27.94
16.5 192.5 27.85
16.5 193.5 27.76
16.5 194.5 27.66
16.5 195.5 27.54
16.5 196.5 27.45
16.5 197.5 27.33
16.5 198.5 27.22
16.5 199.5 27.13
16.5 200.5 27.07
16.5 201.5 27.05
16.5 202.5 27.02
16.5 203.5 27.01
16.5 204.5 27.01
16.5 205.5 26.99
16.5 206.5 26.95
16.5 207.5 26.89
16.5 208.5 26.7
16.5 209.5 26.57
15.5 180.5 28.54
15.5 181.5 28.47
15.5 182.5 28.39
15.5 183.5 28.33
15.5 184.5 28.18
15.5 185.5 28.2
15.5 186.5 28.21
15.5 187.5 28.21
15.5 188.5 28.15
15.5 189.5 28.1
15.5 190.5 28.05
15.5 191.5 27.99
15.5 192.5 27.9
15.5 193.5 27.82
15.5 194.5 27.71
15.5 195.5 27.59
15.5 196.5 27.52
15.5 197.5 27.43
15.5 198.5 27.36
15.5 199.5 27.29
15.5 200.5 27.29
15.5 201.5 27.27
15.5 202.5 27.25
15.5 203.5 27.25
15.5 204.5 27.25
15.5 205.5 27.23
15.5 206.5 27.19
15.5 207.5 27.11
15.5 208.5 26.99
15.5 209.5 26.92
14.5 180.5 28.56
14.5 181.5 28.49
14.5 182.5 28.41
14.5 183.5 28.34
14.5 184.5 28.24
14.5 185.5 28.25
14.5 186.5 28.27
14.5 187.5 28.27
14.5 188.5 28.23
14.5 189.5 28.19
14.5 190.5 28.15
14.5 191.5 28.1
14.5 192.5 28.02
14.5 193.5 27.94
14.5 194.5 27.84
14.5 195.5 27.73
14.5 196.5 27.69
14.5 197.5 27.62
14.5 198.5 27.57
14.5 199.5 27.53
14.5 200.5 27.55
14.5 201.5 27.55
14.5 202.5 27.55
14.5 203.5 27.56
14.5 204.5 27.51
14.5 205.5 27.47
14.5 206.5 27.41
14.5 207.5 27.33
14.5 208.5 27.26
14.5 209.5 27.25
13.5 180.5 28.63
13.5 181.5 28.57
13.5 182.5 28.49
13.5 183.5 28.43
13.5 184.5 28.35
13.5 185.5 28.34
13.5 186.5 28.33
13.5 187.5 28.33
13.5 188.5 28.31
13.5 189.5 28.29
13.5 190.5 28.27
13.5 191.5 28.23
13.5 192.5 28.17
13.5 193.5 28.1
13.5 194.5 28.01
13.5 195.5 27.92
13.5 196.5 27.91
13.5 197.5 27.86
13.5 198.5 27.82
13.5 199.5 27.79
13.5 200.5 27.82
13.5 201.5 27.82
13.5 202.5 27.83
13.5 203.5 27.84
13.5 204.5 27.75
13.5 205.5 27.68
13.5 206.5 27.6
13.5 207.5 27.51
13.5 208.5 27.47
13.5 209.5 27.51
12.5 180.5 28.76
12.5 181.5 28.71
12.5 182.5 28.65
12.5 183.5 28.58
12.5 184.5 28.49
12.5 185.5 28.45
12.5 186.5 28.41
12.5 187.5 28.38
12.5 188.5 28.37
12.5 189.5 28.36
12.5 190.5 28.36
12.5 191.5 28.34
12.5 192.5 28.31
12.5 193.5 28.25
12.5 194.5 28.19
12.5 195.5 28.13
12.5 196.5 28.13
12.5 197.5 28.09
12.5 198.5 28.05
12.5 199.5 28.03
12.5 200.5 28.03
12.5 201.5 28.05
12.5 202.5 28.07
12.5 203.5 28.07
12.5 204.5 27.96
12.5 205.5 27.89
12.5 206.5 27.79
12.5 207.5 27.69
12.5 208.5 27.63
12.5 209.5 27.67
11.5 180.5 28.73
11.5 181.5 28.72
11.5 182.5 28.69
11.5 183.5 28.66
11.5 184.5 28.59
11.5 185.5 28.54
11.5 186.5 28.49
11.5 187.5 28.44
11.5 188.5 28.42
11.5 189.5 28.4
11.5 190.5 28.4
11.5 191.5 28.38
11.5 192.5 28.43
11.5 193.5 28.39
11.5 194.5 28.34
11.5 195.5 28.31
11.5 196.5 28.36
11.5 197.5 28.32
11.5 198.5 28.3
11.5 199.5 28.28
11.5 200.5 28.27
11.5 201.5 28.28
11.5 202.5 28.29
11.5 203.5 28.28
11.5 204.5 28.17
11.5 205.5 28.1
11.5 206.5 28
11.5 207.5 27.9
11.5 208.5 27.83
11.5 209.5 27.81
10.5 180.5 28.86
10.5 181.5 28.87
10.5 182.5 28.86
10.5 183.5 28.85
10.5 184.5 28.76
10.5 185.5 28.72
10.5 186.5 28.66
10.5 187.5 28.59
10.5 188.5 28.57
10.5 189.5 28.55
10.5 190.5 28.54
10.5 191.5 28.52
10.5 192.5 28.62
10.5 193.5 28.58
10.5 194.5 28.54
10.5 195.5 28.53
10.5 196.5 28.64
10.5 197.5 28.62
10.5 198.5 28.6
10.5 199.5 28.6
10.5 200.5 28.57
10.5 201.5 28.59
10.5 202.5 28.58
10.5 203.5 28.56
10.5 204.5 28.45
10.5 205.5 28.38
10.5 206.5 28.29
10.5 207.5 28.19
10.5 208.5 28.08
10.5 209.5 28
