39.5 180.5 10.66
39.5 181.5 10.54
39.5 182.5 10.44
39.5 183.5 10.5
39.5 184.5 10.69
39.5 185.5 10.64
39.5 186.5 10.4
39.5 187.5 10.25
39.5 188.5 10.47
39.5 189.5 10.37
39.5 190.5 10.14
39.5 191.5 9.99
39.5 192.5 10.1
39.5 193.5 10.1
39.5 194.5 10.05
39.5 195.5 9.97
39.5 196.5 9.87
39.5 197.5 9.76
39.5 198.5 9.7
39.5 199.5 9.74
39.5 200.5 9.89
39.5 201.5 9.94
39.5 202.5 9.96
39.5 203.5 10.04
39.5 204.5 10.23
39.5 205.5 10.19
39.5 206.5 10.09
39.5 207.5 10.11
39.5 208.5 10.46
39.5 209.5 10.71
38.5 180.5 11.86
38.5 181.5 11.76
38.5 182.5 11.7
38.5 183.5 11.75
38.5 184.5 11.77
38.5 185.5 11.66
38.5 186.5 11.4
38.5 187.5 11.25
38.5 188.5 11.43
38.5 189.5 11.3
38.5 190.5 11.04
38.5 191.5 10.86
38.5 192.5 10.98
38.5 193.5 10.98
38.5 194.5 10.94
38.5 195.5 10.84
38.5 196.5 10.77
38.5 197.5 10.61
38.5 198.5 10.53
38.5 199.5 10.58
38.5 200.5 10.73
38.5 201.5 10.76
38.5 202.5 10.74
38.5 203.5 10.8
38.5 204.5 10.92
38.5 205.5 10.91
38.5 206.5 10.82
38.5 207.5 10.84
38.5 208.5 11.19
38.5 209.5 11.42
37.5 180.5 12.87
37.5 181.5 12.73
37.5 182.5 12.7
37.5 183.5 12.72
37.5 184.5 12.56
37.5 185.5 12.38
37.5 186.5 12.13
37.5 187.5 11.97
37.5 188.5 12.07
37.5 189.5 11.9
37.5 190.5 11.63
37.5 191.5 11.44
37.5 192.5 11.58
37.5 193.5 11.6
37.5 194.5 11.59
37.5 195.5 11.52
37.5 196.5 11.52
37.5 197.5 11.38
37.5 198.5 11.32
37.5 199.5 11.37
37.5 200.5 11.5
37.5 201.5 11.51
37.5 202.5 11.46
37.5 203.5 11.49
37.5 204.5 11.57
37.5 205.5 11.59
37.5 206.5 11.54
37.5 207.5 11.59
37.5 208.5 11.95
37.5 209.5 12.17
36.5 180.5 13.54
36.5 181.5 13.34
36.5 182.5 13.32
36.5 183.5 13.32
36.5 184.5 13.09
36.5 185.5 12.84
36.5 186.5 12.59
36.5 187.5 12.42
36.5 188.5 12.45
36.5 189.5 12.27
36.5 190.5 12
36.5 191.5 11.84
36.5 192.5 12.02
36.5 193.5 12.07
36.5 194.5 12.08
36.5 195.5 12.07
36.5 196.5 12.14
36.5 197.5 12.06
36.5 198.5 12.02
36.5 199.5 12.09
36.5 200.5 12.19
36.5 201.5 12.2
36.5 202.5 12.14
36.5 203.5 12.15
36.5 204.5 12.26
36.5 205.5 12.29
36.5 206.5 12.28
36.5 207.5 12.36
36.5 208.5 12.75
36.5 209.5 12.97
35.5 180.5 14.21
35.5 181.5 14.06
35.5 182.5 14.15
35.5 183.5 14.25
35.5 184.5 14
35.5 185.5 13.66
35.5 186.5 13.29
35.5 187.5 13
35.5 188.5 12.87
35.5 189.5 12.7
35.5 190.5 12.49
35.5 191.5 12.41
35.5 192.5 12.58
35.5 193.5 12.67
35.5 194.5 12.72
35.5 195.5 12.76
35.5 196.5 12.79
35.5 197.5 12.75
35.5 198.5 12.73
35.5 199.5 12.77
35.5 200.5 12.8
35.5 201.5 12.84
35.5 202.5 12.84
35.5 203.5 12.88
35.5 204.5 13.03
35.5 205.5 13.11
35.5 206.5 13.15
35.5 207.5 13.31
35.5 208.5 13.74
35.5 209.5 13.93
34.5 180.5 14.53
34.5 181.5 14.43
34.5 182.5 14.56
34.5 183.5 14.7
34.5 184.5 14.64
34.5 185.5 14.26
34.5 186.5 13.86
34.5 187.5 13.51
34.5 188.5 13.29
34.5 189.5 13.18
34.5 190.5 13.08
34.5 191.5 13.09
34.5 192.5 13.26
34.5 193.5 13.37
34.5 194.5 13.45
34.5 195.5 13.53
34.5 196.5 13.54
34.5 197.5 13.52
34.5 198.5 13.51
34.5 199.5 13.56
34.5 200.5 13.55
34.5 201.5 13.61
34.5 202.5 13.65
34.5 203.5 13.74
34.5 204.5 13.96
34.5 205.5 14.08
34.5 206.5 14.18
34.5 207.5 14.36
34.5 208.5 14.8
34.5 209.5 14.98
33.5 180.5 14.96
33.5 181.5 14.99
33.5 182.5 15.15
33.5 183.5 15.32
33.5 184.5 15.35
33.5 185.5 14.96
33.5 186.5 14.52
33.5 187.5 14.13
33.5 188.5 13.82
33.5 189.5 13.79
33.5 190.5 13.81
33.5 191.5 13.91
33.5 192.5 14.08
33.5 193.5 14.2
33.5 194.5 14.29
33.5 195.5 14.37
33.5 196.5 14.34
33.5 197.5 14.31
33.5 198.5 14.31
33.5 199.5 14.36
33.5 200.5 14.35
33.5 201.5 14.42
33.5 202.5 14.5
33.5 203.5 14.62
33.5 204.5 14.9
33.5 205.5 15.06
33.5 206.5 15.2
33.5 207.5 15.4
33.5 208.5 15.76
33.5 209.5 15.91
32.5 180.5 15.55
32.5 181.5 15.71
32.5 182.5 15.91
32.5 183.5 16.1
32.5 184.5 16.1
32.5 185.5 15.7
32.5 186.5 15.24
32.5 187.5 14.83
32.5 188.5 14.47
32.5 189.5 14.53
32.5 190.5 14.65
32.5 191.5 14.82
32.5 192.5 14.98
32.5 193.5 15.08
32.5 194.5 15.17
32.5 195.5 15.21
32.5 196.5 15.16
32.5 197.5 15.11
32.5 198.5 15.12
32.5 199.5 15.16
32.5 200.5 15.2
32.5 201.5 15.29
32.5 202.5 15.39
32.5 203.5 15.53
32.5 204.5 15.81
32.5 205.5 15.99
32.5 206.5 16.15
32.5 207.5 16.33
32.5 208.5 16.58
32.5 209.5 16.68
31.5 180.5 16.24
31.5 181.5 16.45
31.5 182.5 16.65
31.5 183.5 16.84
31.5 184.5 16.79
31.5 185.5 16.42
31.5 186.5 16.01
31.5 187.5 15.66
31.5 188.5 15.3
31.5 189.5 15.46
31.5 190.5 15.7
31.5 191.5 15.94
31.5 192.5 16.05
31.5 193.5 16.15
31.5 194.5 16.24
31.5 195.5 16.25
31.5 196.5 16.16
31.5 197.5 16.11
31.5 198.5 16.17
31.5 199.5 16.28
31.5 200.5 16.33
31.5 201.5 16.42
31.5 202.5 16.5
31.5 203.5 16.59
31.5 204.5 16.76
31.5 205.5 16.91
31.5 206.5 17.07
31.5 207.5 17.23
31.5 208.5 17.32
31.5 209.5 17.39
30.5 180.5 16.93
30.5 181.5 17.07
30.5 182.5 17.22
30.5 183.5 17.34
30.5 184.5 17.15
30.5 185.5 16.81
30.5 186.5 16.49
30.5 187.5 16.31
30.5 188.5 16.2
30.5 189.5 16.5
30.5 190.5 16.82
30.5 191.5 17.12
30.5 192.5 17.31
30.5 193.5 17.44
30.5 194.5 17.54
30.5 195.5 17.55
30.5 196.5 17.49
30.5 197.5 17.46
30.5 198.5 17.55
30.5 199.5 17.67
30.5 200.5 17.66
30.5 201.5 17.74
30.5 202.5 17.82
30.5 203.5 17.86
30.5 204.5 17.82
30.5 205.5 17.93
30.5 206.5 18.08
30.5 207.5 18.23
30.5 208.5 18.3
30.5 209.5 18.37
29.5 180.5 17.88
29.5 181.5 17.91
29.5 182.5 17.98
29.5 183.5 17.98
29.5 184.5 17.7
29.5 185.5 17.41
29.5 186.5 17.22
29.5 187.5 17.21
29.5 188.5 17.35
29.5 189.5 17.7
29.5 190.5 18.04
29.5 191.5 18.35
29.5 192.5 18.61
29.5 193.5 18.79
29.5 194.5 18.92
29.5 195.5 18.97
29.5 196.5 18.92
29.5 197.5 18.93
29.5 198.5 19.05
29.5 199.5 19.16
29.5 200.5 19.02
29.5 201.5 19.1
29.5 202.5 19.17
29.5 203.5 19.16
29.5 204.5 18.95
29.5 205.5 19.01
29.5 206.5 19.14
29.5 207.5 19.29
29.5 208.5 19.37
29.5 209.5 19.44
28.5 180.5 19.05
28.5 181.5 19.01
28.5 182.5 19.02
28.5 183.5 18.93
28.5 184.5 18.67
28.5 185.5 18.48
28.5 186.5 18.43
28.5 187.5 18.53
28.5 188.5 18.73
28.5 189.5 19.03
28.5 190.5 19.31
28.5 191.5 19.57
28.5 192.5 19.8
28.5 193.5 20.02
28.5 194.5 20.19
28.5 195.5 20.31
28.5 196.5 20.24
28.5 197.5 20.28
28.5 198.5 20.39
28.5 199.5 20.5
28.5 200.5 20.22
28.5 201.5 20.32
28.5 202.5 20.38
28.5 203.5 20.33
28.5 204.5 20.03
28.5 205.5 20.06
28.5 206.5 20.17
28.5 207.5 20.31
28.5 208.5 20.4
28.5 209.5 20.45
27.5 180.5 20.2
27.5 181.5 20.19
27.5 182.5 20.23
27.5 183.5 20.16
27.5 184.5 19.96
27.5 185.5 19.89
27.5 186.5 20
27.5 187.5 20.17
27.5 188.5 20.2
27.5 189.5 20.4
27.5 190.5 20.59
27.5 191.5 20.76
27.5 192.5 20.91
27.5 193.5 21.1
27.5 194.5 21.27
27.5 195.5 21.44
27.5 196.5 21.33
27.5 197.5 21.36
27.5 198.5 21.43
27.5 199.5 21.52
27.5 200.5 21.21
27.5 201.5 21.28
27.5 202.5 21.26
27.5 203.5 21.14
27.5 204.5 20.89
27.5 205.5 20.97
27.5 206.5 21.12
27.5 207.5 21.3
27.5 208.5 21.38
27.5 209.5 21.41
26.5 180.5 21.32
26.5 181.5 21.37
26.5 182.5 21.45
26.5 183.5 21.44
26.5 184.5 21.27
26.5 185.5 21.27
26.5 186.5 21.42
26.5 187.5 21.55
26.5 188.5 21.52
26.5 189.5 21.59
26.5 190.5 21.67
26.5 191.5 21.71
26.5 192.5 21.8
26.5 193.5 21.94
26.5 194.5 22.11
26.5 195.5 22.29
26.5 196.5 22.16
26.5 197.5 22.14
26.5 198.5 22.12
26.5 199.5 22.15
26.5 200.5 21.82
26.5 201.5 21.89
26.5 202.5 21.86
26.5 203.5 21.74
26.5 204.5 21.61
26.5 205.5 21.71
26.5 206.5 21.86
26.5 207.5 22.06
26.5 208.5 22.12
26.5 209.5 22.09
25.5 180.5 22.41
25.5 181.5 22.52
25.5 182.5 22.66
25.5 183.5 22.71
25.5 184.5 22.56
25.5 185.5 22.6
25.5 186.5 22.77
25.5 187.5 22.84
25.5 188.5 22.72
25.5 189.5 22.7
25.5 190.5 22.67
25.5 191.5 22.62
25.5 192.5 22.69
25.5 193.5 22.79
25.5 194.5 22.93
25.5 195.5 23.1
25.5 196.5 22.97
25.5 197.5 22.88
25.5 198.5 22.76
25.5 199.5 22.7
25.5 200.5 22.4
25.5 201.5 22.44
25.5 202.5 22.41
25.5 203.5 22.31
25.5 204.5 22.25
25.5 205.5 22.37
25.5 206.5 22.52
25.5 207.5 22.7
25.5 208.5 22.72
25.5 209.5 22.63
24.5 180.5 23.33
24.5 181.5 23.49
24.5 182.5 23.67
24.5 183.5 23.78
24.5 184.5 23.61
24.5 185.5 23.66
24.5 186.5 23.79
24.5 187.5 23.8
24.5 188.5 23.6
24.5 189.5 23.55
24.5 190.5 23.49
24.5 191.5 23.44
24.5 192.5 23.58
24.5 193.5 23.66
24.5 194.5 23.75
24.5 195.5 23.84
24.5 196.5 23.78
24.5 197.5 23.61
24.5 198.5 23.41
24.5 199.5 23.27
24.5 200.5 23.05
24.5 201.5 23.06
24.5 202.5 23.01
24.5 203.5 22.94
24.5 204.5 22.89
24.5 205.5 23.02
24.5 206.5 23.15
24.5 207.5 23.28
24.5 208.5 23.23
24.5 209.5 23.08
23.5 180.5 23.95
23.5 181.5 24.11
23.5 182.5 24.31
23.5 183.5 24.45
23.5 184.5 24.32
23.5 185.5 24.33
23.5 186.5 24.37
23.5 187.5 24.29
23.5 188.5 24.11
23.5 189.5 24.07
23.5 190.5 24.06
23.5 191.5 24.12
23.5 192.5 24.42
23.5 193.5 24.47
23.5 194.5 24.45
23.5 195.5 24.42
23.5 196.5 24.44
23.5 197.5 24.28
23.5 198.5 24.09
23.5 199.5 23.97
23.5 200.5 23.88
23.5 201.5 23.83
23.5 202.5 23.73
23.5 203.5 23.62
23.5 204.5 23.52
23.5 205.5 23.59
23.5 206.5 23.65
23.5 207.5 23.7
23.5 208.5 23.62
23.5 209.5 23.45
22.5 180.5 24.51
22.5 181.5 24.63
22.5 182.5 24.82
22.5 183.5 24.96
22.5 184.5 24.9
22.5 185.5 24.92
22.5 186.5 24.94
22.5 187.5 24.85
22.5 188.5 24.65
22.5 189.5 24.62
22.5 190.5 24.62
22.5 191.5 24.7
22.5 192.5 24.95
22.5 193.5 25.01
22.5 194.5 24.96
22.5 195.5 24.86
22.5 196.5 24.83
22.5 197.5 24.66
22.5 198.5 24.47
22.5 199.5 24.37
22.5 200.5 24.39
22.5 201.5 24.34
22.5 202.5 24.25
22.5 203.5 24.14
22.5 204.5 24.02
22.5 205.5 24.03
22.5 206.5 24.02
22.5 207.5 23.98
22.5 208.5 23.82
22.5 209.5 23.63
21.5 180.5 25.04
21.5 181.5 25.12
21.5 182.5 25.26
21.5 183.5 25.38
21.5 184.5 25.4
21.5 185.5 25.43
21.5 186.5 25.45
21.5 187.5 25.37
21.5 188.5 25.21
21.5 189.5 25.18
21.5 190.5 25.16
21.5 191.5 25.21
21.5 192.5 25.31
21.5 193.5 25.34
21.5 194.5 25.26
21.5 195.5 25.13
21.5 196.5 25.03
21.5 197.5 24.87
21.5 198.5 24.73
21.5 199.5 24.67
21.5 200.5 24.76
21.5 201.5 24.73
21.5 202.5 24.64
21.5 203.5 24.5
21.5 204.5 24.34
21.5 205.5 24.28
21.5 206.5 24.2
21.5 207.5 24.1
21.5 208.5 23.93
21.5 209.5 23.75
20.5 180.5 25.58
20.5 181.5 25.64
20.5 182.5 25.73
20.5 183.5 25.8
20.5 184.5 25.82
20.5 185.5 25.86
20.5 186.5 25.88
20.5 187.5 25.82
20.5 188.5 25.73
20.5 189.5 25.69
20.5 190.5 25.65
20.5 191.5 25.65
20.5 192.5 25.61
20.5 193.5 25.58
20.5 194.5 25.47
20.5 195.5 25.33
20.5 196.5 25.18
20.5 197.5 25.06
20.5 198.5 24.97
20.5 199.5 24.95
20.5 200.5 25.04
20.5 201.5 24.99
20.5 202.5 24.88
20.5 203.5 24.7
20.5 204.5 24.53
20.5 205.5 24.39
20.5 206.5 24.26
20.5 207.5 24.14
20.5 208.5 24.04
20.5 209.5 23.89
19.5 180.5 26.09
19.5 181.5 26.14
19.5 182.5 26.18
19.5 183.5 26.19
19.5 184.5 26.11
19.5 185.5 26.13
19.5 186.5 26.15
19.5 187.5 26.12
19.5 188.5 26.08
19.5 189.5 26.03
19.5 190.5 25.97
19.5 191.5 25.92
19.5 192.5 25.88
19.5 193.5 25.8
19.5 194.5 25.7
19.5 195.5 25.58
19.5 196.5 25.43
19.5 197.5 25.37
19.5 198.5 25.32
19.5 199.5 25.28
19.5 200.5 25.26
19.5 201.5 25.16
19.5 202.5 24.99
19.5 203.5 24.79
19.5 204.5 24.66
19.5 205.5 24.48
19.5 206.5 24.32
19.5 207.5 24.21
19.5 208.5 24.17
19.5 209.5 24.05
18.5 180.5 26.52
18.5 181.5 26.52
18.5 182.5 26.51
18.5 183.5 26.44
18.5 184.5 26.3
18.5 185.5 26.29
18.5 186.5 26.3
18.5 187.5 26.27
18.5 188.5 26.19
18.5 189.5 26.13
18.5 190.5 26.06
18.5 191.5 26.01
18.5 192.5 25.93
18.5 193.5 25.85
18.5 194.5 25.76
18.5 195.5 25.66
18.5 196.5 25.55
18.5 197.5 25.51
18.5 198.5 25.46
18.5 199.5 25.4
18.5 200.5 25.32
18.5 201.5 25.18
18.5 202.5 25
18.5 203.5 24.81
18.5 204.5 24.75
18.5 205.5 24.61
18.5 206.5 24.48
18.5 207.5 24.4
18.5 208.5 24.34
18.5 209.5 24.24
17.5 180.5 26.72
17.5 181.5 26.67
17.5 182.5 26.6
17.5 183.5 26.48
17.5 184.5 26.33
17.5 185.5 26.3
17.5 186.5 26.3
17.5 187.5 26.27
17.5 188.5 26.16
17.5 189.5 26.09
17.5 190.5 26.03
17.5 191.5 25.97
17.5 192.5 25.89
17.5 193.5 25.81
17.5 194.5 25.73
17.5 195.5 25.64
17.5 196.5 25.58
17.5 197.5 25.53
17.5 198.5 25.46
17.5 199.5 25.39
17.5 200.5 25.3
17.5 201.5 25.15
17.5 202.5 24.99
17.5 203.5 24.84
17.5 204.5 24.85
17.5 205.5 24.76
17.5 206.5 24.68
17.5 207.5 24.62
17.5 208.5 24.55
17.5 209.5 24.45
16.5 180.5 26.72
16.5 181.5 26.63
16.5 182.5 26.53
16.5 183.5 26.41
16.5 184.5 26.32
16.5 185.5 26.29
16.5 186.5 26.29
16.5 187.5 26.25
16.5 188.5 26.15
16.5 189.5 26.08
16.5 190.5 26.02
16.5 191.5 25.96
16.5 192.5 25.87
16.5 193.5 25.79
16.5 194.5 25.72
16.5 195.5 25.63
16.5 196.5 25.59
16.5 197.5 25.53
16.5 198.5 25.44
16.5 199.5 25.36
16.5 200.5 25.3
16.5 201.5 25.19
16.5 202.5 25.06
16.5 203.5 24.97
16.5 204.5 25.03
16.5 205.5 24.99
16.5 206.5 24.94
16.5 207.5 24.89
16.5 208.5 24.8
16.5 209.5 24.7
15.5 180.5 26.62
15.5 181.5 26.53
15.5 182.5 26.45
15.5 183.5 26.38
15.5 184.5 26.36
15.5 185.5 26.35
15.5 186.5 26.34
15.5 187.5 26.32
15.5 188.5 26.25
15.5 189.5 26.19
15.5 190.5 26.14
15.5 191.5 26.09
15.5 192.5 25.99
15.5 193.5 25.94
15.5 194.5 25.87
15.5 195.5 25.78
15.5 196.5 25.72
15.5 197.5 25.63
15.5 198.5 25.52
15.5 199.5 25.43
15.5 200.5 25.46
15.5 201.5 25.38
15.5 202.5 25.3
15.5 203.5 25.26
15.5 204.5 25.33
15.5 205.5 25.32
15.5 206.5 25.27
15.5 207.5 25.19
15.5 208.5 25.08
15.5 209.5 24.97
14.5 180.5 26.64
14.5 181.5 26.56
14.5 182.5 26.49
14.5 183.5 26.46
14.5 184.5 26.48
14.5 185.5 26.47
14.5 186.5 26.45
14.5 187.5 26.43
14.5 188.5 26.37
14.5 189.5 26.32
14.5 190.5 26.27
14.5 191.5 26.22
14.5 192.5 26.2
14.5 193.5 26.17
14.5 194.5 26.12
14.5 195.5 26.05
14.5 196.5 25.97
14.5 197.5 25.86
14.5 198.5 25.73
14.5 199.5 25.62
14.5 200.5 25.65
14.5 201.5 25.59
14.5 202.5 25.55
14.5 203.5 25.54
14.5 204.5 25.6
14.5 205.5 25.62
14.5 206.5 25.58
14.5 207.5 25.5
14.5 208.5 25.35
14.5 209.5 25.25
13.5 180.5 26.75
13.5 181.5 26.69
13.5 182.5 26.65
13.5 183.5 26.64
13.5 184.5 26.65
13.5 185.5 26.64
13.5 186.5 26.6
13.5 187.5 26.55
13.5 188.5 26.5
13.5 189.5 26.44
13.5 190.5 26.39
13.5 191.5 26.37
13.5 192.5 26.44
13.5 193.5 26.46
13.5 194.5 26.44
13.5 195.5 26.39
13.5 196.5 26.3
13.5 197.5 26.19
13.5 198.5 26.05
13.5 199.5 25.93
13.5 200.5 25.9
13.5 201.5 25.84
13.5 202.5 25.81
13.5 203.5 25.81
13.5 204.5 25.83
13.5 205.5 25.86
13.5 206.5 25.84
13.5 207.5 25.79
13.5 208.5 25.66
13.5 209.5 25.59
12.5 180.5 26.93
12.5 181.5 26.91
12.5 182.5 26.9
12.5 183.5 26.9
12.5 184.5 26.87
12.5 185.5 26.84
12.5 186.5 26.78
12.5 187.5 26.71
12.5 188.5 26.65
12.5 189.5 26.59
12.5 190.5 26.53
12.5 191.5 26.52
12.5 192.5 26.66
12.5 193.5 26.72
12.5 194.5 26.73
12.5 195.5 26.71
12.5 196.5 26.64
12.5 197.5 26.54
12.5 198.5 26.41
12.5 199.5 26.28
12.5 200.5 26.18
12.5 201.5 26.11
12.5 202.5 26.07
12.5 203.5 26.04
12.5 204.5 26.02
12.5 205.5 26.04
12.5 206.5 26.05
12.5 207.5 26.03
12.5 208.5 25.98
12.5 209.5 25.96
11.5 180.5 27.15
11.5 181.5 27.16
11.5 182.5 27.16
11.5 183.5 27.17
11.5 184.5 27.15
11.5 185.5 27.12
11.5 186.5 27.05
11.5 187.5 26.98
11.5 188.5 26.89
11.5 189.5 26.81
11.5 190.5 26.74
11.5 191.5 26.71
11.5 192.5 26.82
11.5 193.5 26.88
11.5 194.5 26.91
11.5 195.5 26.93
11.5 196.5 26.9
11.5 197.5 26.81
11.5 198.5 26.71
11.5 199.5 26.61
11.5 200.5 26.5
11.5 201.5 26.43
11.5 202.5 26.36
11.5 203.5 26.27
11.5 204.5 26.2
11.5 205.5 26.18
11.5 206.5 26.2
11.5 207.5 26.25
11.5 208.5 26.33
11.5 209.5 26.4
10.5 180.5 27.4
10.5 181.5 27.42
10.5 182.5 27.42
10.5 183.5 27.44
10.5 184.5 27.47
10.5 185.5 27.45
10.5 186.5 27.39
10.5 187.5 27.32
10.5 188.5 27.24
10.5 189.5 27.15
10.5 190.5 27.05
10.5 191.5 26.98
10.5 192.5 27.01
10.5 193.5 27.04
10.5 194.5 27.06
10.5 195.5 27.07
10.5 196.5 27.08
10.5 197.5 27.02
10.5 198.5 26.95
10.5 199.5 26.89
10.5 200.5 26.81
10.5 201.5 26.75
10.5 202.5 26.69
10.5 203.5 26.59
10.5 204.5 26.49
10.5 205.5 26.46
10.5 206.5 26.48
10.5 207.5 26.53
10.5 208.5 26.66
10.5 209.5 26.75
