39.5 180.5 15.39
39.5 181.5 15.37
39.5 182.5 15.43
39.5 183.5 15.45
39.5 184.5 15.39
39.5 185.5 15.2
39.5 186.5 15.05
39.5 187.5 14.87
39.5 188.5 14.58
39.5 189.5 14.53
39.5 190.5 14.58
39.5 191.5 14.59
39.5 192.5 14.22
39.5 193.5 14.24
39.5 194.5 14.33
39.5 195.5 14.37
39.5 196.5 14.05
39.5 197.5 14.06
39.5 198.5 14.16
39.5 199.5 14.28
39.5 200.5 14.41
39.5 201.5 14.59
39.5 202.5 14.83
39.5 203.5 15.11
39.5 204.5 15.41
39.5 205.5 15.75
39.5 206.5 16.12
39.5 207.5 16.55
39.5 208.5 17.22
39.5 209.5 17.4
38.5 180.5 16.59
38.5 181.5 16.65
38.5 182.5 16.71
38.5 183.5 16.71
38.5 184.5 16.64
38.5 185.5 16.46
38.5 186.5 16.32
38.5 187.5 16.13
38.5 188.5 15.77
38.5 189.5 15.7
38.5 190.5 15.75
38.5 191.5 15.71
38.5 192.5 15.22
38.5 193.5 15.17
38.5 194.5 15.23
38.5 195.5 15.24
38.5 196.5 14.89
38.5 197.5 14.89
38.5 198.5 14.98
38.5 199.5 15.11
38.5 200.5 15.37
38.5 201.5 15.59
38.5 202.5 15.85
38.5 203.5 16.12
38.5 204.5 16.48
38.5 205.5 16.8
38.5 206.5 17.14
38.5 207.5 17.53
38.5 208.5 18.09
38.5 209.5 18.2
37.5 180.5 17.74
37.5 181.5 17.84
37.5 182.5 17.9
37.5 183.5 17.85
37.5 184.5 17.74
37.5 185.5 17.55
37.5 186.5 17.43
37.5 187.5 17.23
37.5 188.5 16.79
37.5 189.5 16.69
37.5 190.5 16.72
37.5 191.5 16.67
37.5 192.5 16.13
37.5 193.5 16.03
37.5 194.5 16.06
37.5 195.5 16.09
37.5 196.5 15.84
37.5 197.5 15.86
37.5 198.5 15.94
37.5 199.5 16.06
37.5 200.5 16.4
37.5 201.5 16.64
37.5 202.5 16.89
37.5 203.5 17.15
37.5 204.5 17.57
37.5 205.5 17.87
37.5 206.5 18.18
37.5 207.5 18.5
37.5 208.5 18.89
37.5 209.5 18.94
36.5 180.5 18.83
36.5 181.5 18.89
36.5 182.5 18.9
36.5 183.5 18.8
36.5 184.5 18.61
36.5 185.5 18.44
36.5 186.5 18.36
36.5 187.5 18.18
36.5 188.5 17.71
36.5 189.5 17.56
36.5 190.5 17.56
36.5 191.5 17.49
36.5 192.5 16.97
36.5 193.5 16.86
36.5 194.5 16.91
36.5 195.5 17
36.5 196.5 16.9
36.5 197.5 16.95
36.5 198.5 17
36.5 199.5 17.09
36.5 200.5 17.44
36.5 201.5 17.67
36.5 202.5 17.92
36.5 203.5 18.19
36.5 204.5 18.67
36.5 205.5 18.93
36.5 206.5 19.18
36.5 207.5 19.42
36.5 208.5 19.62
36.5 209.5 19.62
35.5 180.5 19.96
35.5 181.5 19.92
35.5 182.5 19.84
35.5 183.5 19.62
35.5 184.5 19.22
35.5 185.5 19.04
35.5 186.5 19
35.5 187.5 18.89
35.5 188.5 18.49
35.5 189.5 18.3
35.5 190.5 18.24
35.5 191.5 18.11
35.5 192.5 17.75
35.5 193.5 17.67
35.5 194.5 17.76
35.5 195.5 17.93
35.5 196.5 17.93
35.5 197.5 18.02
35.5 198.5 18.09
35.5 199.5 18.19
35.5 200.5 18.52
35.5 201.5 18.75
35.5 202.5 18.99
35.5 203.5 19.24
35.5 204.5 19.7
35.5 205.5 19.88
35.5 206.5 20.03
35.5 207.5 20.15
35.5 208.5 20.16
35.5 209.5 20.13
34.5 180.5 20.83
34.5 181.5 20.75
34.5 182.5 20.64
34.5 183.5 20.39
34.5 184.5 19.94
34.5 185.5 19.73
34.5 186.5 19.68
34.5 187.5 19.6
34.5 188.5 19.34
34.5 189.5 19.17
34.5 190.5 19.1
34.5 191.5 18.98
34.5 192.5 18.77
34.5 193.5 18.72
34.5 194.5 18.78
34.5 195.5 18.92
34.5 196.5 18.95
34.5 197.5 19.03
34.5 198.5 19.09
34.5 199.5 19.17
34.5 200.5 19.44
34.5 201.5 19.64
34.5 202.5 19.85
34.5 203.5 20.08
34.5 204.5 20.5
34.5 205.5 20.65
34.5 206.5 20.76
34.5 207.5 20.84
34.5 208.5 20.76
34.5 209.5 20.71
33.5 180.5 21.69
33.5 181.5 21.6
33.5 182.5 21.49
33.5 183.5 21.25
33.5 184.5 20.82
33.5 185.5 20.58
33.5 186.5 20.49
33.5 187.5 20.41
33.5 188.5 20.3
33.5 189.5 20.2
33.5 190.5 20.13
33.5 191.5 20.03
33.5 192.5 19.96
33.5 193.5 19.89
33.5 194.5 19.88
33.5 195.5 19.94
33.5 196.5 19.96
33.5 197.5 20.03
33.5 198.5 20.1
33.5 199.5 20.16
33.5 200.5 20.35
33.5 201.5 20.5
33.5 202.5 20.66
33.5 203.5 20.84
33.5 204.5 21.14
33.5 205.5 21.27
33.5 206.5 21.36
33.5 207.5 21.44
33.5 208.5 21.36
33.5 209.5 21.31
32.5 180.5 22.5
32.5 181.5 22.45
32.5 182.5 22.37
32.5 183.5 22.19
32.5 184.5 21.85
32.5 185.5 21.61
32.5 186.5 21.46
32.5 187.5 21.36
32.5 188.5 21.39
32.5 189.5 21.32
32.5 190.5 21.26
32.5 191.5 21.18
32.5 192.5 21.17
32.5 193.5 21.06
32.5 194.5 20.96
32.5 195.5 20.93
32.5 196.5 20.94
32.5 197.5 21
32.5 198.5 21.08
32.5 199.5 21.15
32.5 200.5 21.24
32.5 201.5 21.34
32.5 202.5 21.43
32.5 203.5 21.55
32.5 204.5 21.72
32.5 205.5 21.82
32.5 206.5 21.91
32.5 207.5 21.99
32.5 208.5 21.97
32.5 209.5 21.93
31.5 180.5 23.07
31.5 181.5 23.11
31.5 182.5 23.14
31.5 183.5 23.12
31.5 184.5 22.96
31.5 185.5 22.76
31.5 186.5 22.56
31.5 187.5 22.4
31.5 188.5 22.46
31.5 189.5 22.37
31.5 190.5 22.26
31.5 191.5 22.17
31.5 192.5 22.19
31.5 193.5 22.06
31.5 194.5 21.93
31.5 195.5 21.83
31.5 196.5 21.86
31.5 197.5 21.88
31.5 198.5 21.95
31.5 199.5 22
31.5 200.5 22.01
31.5 201.5 22.09
31.5 202.5 22.18
31.5 203.5 22.27
31.5 204.5 22.33
31.5 205.5 22.39
31.5 206.5 22.45
31.5 207.5 22.51
31.5 208.5 22.55
31.5 209.5 22.51
30.5 180.5 23.65
30.5 181.5 23.74
30.5 182.5 23.84
30.5 183.5 23.94
30.5 184.5 24.01
30.5 185.5 23.89
30.5 186.5 23.68
30.5 187.5 23.46
30.5 188.5 23.44
30.5 189.5 23.32
30.5 190.5 23.2
30.5 191.5 23.1
30.5 192.5 23.14
30.5 193.5 23.03
30.5 194.5 22.89
30.5 195.5 22.77
30.5 196.5 22.78
30.5 197.5 22.76
30.5 198.5 22.79
30.5 199.5 22.8
30.5 200.5 22.76
30.5 201.5 22.8
30.5 202.5 22.86
30.5 203.5 22.92
30.5 204.5 22.93
30.5 205.5 22.96
30.5 206.5 23
30.5 207.5 23.05
30.5 208.5 23.12
30.5 209.5 23.1
29.5 180.5 24.22
29.5 181.5 24.32
29.5 182.5 24.46
29.5 183.5 24.63
29.5 184.5 24.82
29.5 185.5 24.76
29.5 186.5 24.55
29.5 187.5 24.3
29.5 188.5 24.16
29.5 189.5 24.01
29.5 190.5 23.89
29.5 191.5 23.81
29.5 192.5 23.88
29.5 193.5 23.81
29.5 194.5 23.71
29.5 195.5 23.61
29.5 196.5 23.63
29.5 197.5 23.58
29.5 198.5 23.57
29.5 199.5 23.53
29.5 200.5 23.48
29.5 201.5 23.49
29.5 202.5 23.52
29.5 203.5 23.54
29.5 204.5 23.53
29.5 205.5 23.54
29.5 206.5 23.55
29.5 207.5 23.58
29.5 208.5 23.67
29.5 209.5 23.64
28.5 180.5 24.77
28.5 181.5 24.87
28.5 182.5 25.03
28.5 183.5 25.2
28.5 184.5 25.35
28.5 185.5 25.29
28.5 186.5 25.09
28.5 187.5 24.83
28.5 188.5 24.6
28.5 189.5 24.44
28.5 190.5 24.34
28.5 191.5 24.3
28.5 192.5 24.41
28.5 193.5 24.41
28.5 194.5 24.37
28.5 195.5 24.33
28.5 196.5 24.35
28.5 197.5 24.28
28.5 198.5 24.23
28.5 199.5 24.15
28.5 200.5 24.1
28.5 201.5 24.1
28.5 202.5 24.11
28.5 203.5 24.11
28.5 204.5 24.13
28.5 205.5 24.1
28.5 206.5 24.08
28.5 207.5 24.07
28.5 208.5 24.14
28.5 209.5 24.12
27.5 180.5 25.27
27.5 181.5 25.37
27.5 182.5 25.53
27.5 183.5 25.68
27.5 184.5 25.67
27.5 185.5 25.61
27.5 186.5 25.46
27.5 187.5 25.24
27.5 188.5 24.98
27.5 189.5 24.84
27.5 190.5 24.79
27.5 191.5 24.8
27.5 192.5 24.92
27.5 193.5 24.97
27.5 194.5 24.98
27.5 195.5 24.96
27.5 196.5 24.96
27.5 197.5 24.84
27.5 198.5 24.72
27.5 199.5 24.58
27.5 200.5 24.6
27.5 201.5 24.59
27.5 202.5 24.61
27.5 203.5 24.63
27.5 204.5 24.67
27.5 205.5 24.61
27.5 206.5 24.54
27.5 207.5 24.47
27.5 208.5 24.49
27.5 209.5 24.48
26.5 180.5 25.9
26.5 181.5 26
26.5 182.5 26.14
26.5 183.5 26.23
26.5 184.5 26.09
26.5 185.5 26.01
26.5 186.5 25.88
26.5 187.5 25.7
26.5 188.5 25.48
26.5 189.5 25.39
26.5 190.5 25.37
26.5 191.5 25.39
26.5 192.5 25.45
26.5 193.5 25.48
26.5 194.5 25.48
26.5 195.5 25.45
26.5 196.5 25.41
26.5 197.5 25.28
26.5 198.5 25.14
26.5 199.5 24.99
26.5 200.5 25.04
26.5 201.5 25.02
26.5 202.5 25.01
26.5 203.5 25.03
26.5 204.5 25.14
26.5 205.5 25.06
26.5 206.5 24.94
26.5 207.5 24.83
26.5 208.5 24.81
26.5 209.5 24.8
25.5 180.5 26.43
25.5 181.5 26.53
25.5 182.5 26.65
25.5 183.5 26.7
25.5 184.5 26.54
25.5 185.5 26.46
25.5 186.5 26.35
25.5 187.5 26.2
25.5 188.5 26.02
25.5 189.5 25.96
25.5 190.5 25.95
25.5 191.5 25.95
25.5 192.5 25.92
25.5 193.5 25.9
25.5 194.5 25.87
25.5 195.5 25.81
25.5 196.5 25.73
25.5 197.5 25.59
25.5 198.5 25.45
25.5 199.5 25.3
25.5 200.5 25.37
25.5 201.5 25.34
25.5 202.5 25.31
25.5 203.5 25.32
25.5 204.5 25.48
25.5 205.5 25.38
25.5 206.5 25.22
25.5 207.5 25.07
25.5 208.5 25.04
25.5 209.5 25.01
24.5 180.5 26.78
24.5 181.5 26.89
24.5 182.5 26.99
24.5 183.5 27.03
24.5 184.5 26.88
24.5 185.5 26.82
24.5 186.5 26.72
24.5 187.5 26.6
24.5 188.5 26.45
24.5 189.5 26.41
24.5 190.5 26.38
24.5 191.5 26.35
24.5 192.5 26.27
24.5 193.5 26.2
24.5 194.5 26.13
24.5 195.5 26.05
24.5 196.5 25.97
24.5 197.5 25.85
24.5 198.5 25.71
24.5 199.5 25.58
24.5 200.5 25.63
24.5 201.5 25.59
24.5 202.5 25.54
24.5 203.5 25.52
24.5 204.5 25.65
24.5 205.5 25.52
24.5 206.5 25.33
24.5 207.5 25.17
24.5 208.5 25.13
24.5 209.5 25.09
23.5 180.5 27.01
23.5 181.5 27.14
23.5 182.5 27.23
23.5 183.5 27.27
23.5 184.5 27.07
23.5 185.5 26.97
23.5 186.5 26.86
23.5 187.5 26.76
23.5 188.5 26.67
23.5 189.5 26.66
23.5 190.5 26.64
23.5 191.5 26.58
23.5 192.5 26.55
23.5 193.5 26.43
23.5 194.5 26.31
23.5 195.5 26.22
23.5 196.5 26.26
23.5 197.5 26.16
23.5 198.5 26.02
23.5 199.5 25.9
23.5 200.5 25.9
23.5 201.5 25.84
23.5 202.5 25.75
23.5 203.5 25.67
23.5 204.5 25.68
23.5 205.5 25.53
23.5 206.5 25.36
23.5 207.5 25.21
23.5 208.5 25.21
23.5 209.5 25.17
22.5 180.5 27.12
22.5 181.5 27.24
22.5 182.5 27.33
22.5 183.5 27.35
22.5 184.5 27.15
22.5 185.5 27.01
22.5 186.5 26.87
22.5 187.5 26.76
22.5 188.5 26.72
22.5 189.5 26.74
22.5 190.5 26.73
22.5 191.5 26.7
22.5 192.5 26.74
22.5 193.5 26.62
22.5 194.5 26.51
22.5 195.5 26.45
22.5 196.5 26.6
22.5 197.5 26.53
22.5 198.5 26.41
22.5 199.5 26.28
22.5 200.5 26.22
22.5 201.5 26.12
22.5 202.5 25.98
22.5 203.5 25.84
22.5 204.5 25.75
22.5 205.5 25.6
22.5 206.5 25.44
22.5 207.5 25.33
22.5 208.5 25.35
22.5 209.5 25.3
21.5 180.5 27.22
21.5 181.5 27.33
21.5 182.5 27.4
21.5 183.5 27.4
21.5 184.5 27.22
21.5 185.5 27.07
21.5 186.5 26.92
21.5 187.5 26.82
21.5 188.5 26.83
21.5 189.5 26.87
21.5 190.5 26.9
21.5 191.5 26.91
21.5 192.5 27
21.5 193.5 26.91
21.5 194.5 26.8
21.5 195.5 26.74
21.5 196.5 26.9
21.5 197.5 26.85
21.5 198.5 26.74
21.5 199.5 26.62
21.5 200.5 26.53
21.5 201.5 26.39
21.5 202.5 26.21
21.5 203.5 26.04
21.5 204.5 25.91
21.5 205.5 25.76
21.5 206.5 25.61
21.5 207.5 25.52
21.5 208.5 25.54
21.5 209.5 25.47
20.5 180.5 27.38
20.5 181.5 27.45
20.5 182.5 27.49
20.5 183.5 27.47
20.5 184.5 27.35
20.5 185.5 27.21
20.5 186.5 27.06
20.5 187.5 26.98
20.5 188.5 27.06
20.5 189.5 27.13
20.5 190.5 27.18
20.5 191.5 27.22
20.5 192.5 27.28
20.5 193.5 27.2
20.5 194.5 27.08
20.5 195.5 27.01
20.5 196.5 27.11
20.5 197.5 27.03
20.5 198.5 26.93
20.5 199.5 26.82
20.5 200.5 26.75
20.5 201.5 26.61
20.5 202.5 26.43
20.5 203.5 26.26
20.5 204.5 26.11
20.5 205.5 25.97
20.5 206.5 25.83
20.5 207.5 25.74
20.5 208.5 25.71
20.5 209.5 25.61
19.5 180.5 27.6
19.5 181.5 27.62
19.5 182.5 27.62
19.5 183.5 27.59
19.5 184.5 27.54
19.5 185.5 27.45
19.5 186.5 27.34
19.5 187.5 27.29
19.5 188.5 27.39
19.5 189.5 27.44
19.5 190.5 27.49
19.5 191.5 27.51
19.5 192.5 27.47
19.5 193.5 27.38
19.5 194.5 27.26
19.5 195.5 27.16
19.5 196.5 27.13
19.5 197.5 27.02
19.5 198.5 26.91
19.5 199.5 26.81
19.5 200.5 26.8
19.5 201.5 26.7
19.5 202.5 26.55
19.5 203.5 26.41
19.5 204.5 26.29
19.5 205.5 26.16
19.5 206.5 26.04
19.5 207.5 25.93
19.5 208.5 25.81
19.5 209.5 25.67
18.5 180.5 27.76
18.5 181.5 27.74
18.5 182.5 27.7
18.5 183.5 27.65
18.5 184.5 27.64
18.5 185.5 27.58
18.5 186.5 27.53
18.5 187.5 27.51
18.5 188.5 27.58
18.5 189.5 27.61
18.5 190.5 27.63
18.5 191.5 27.59
18.5 192.5 27.45
18.5 193.5 27.34
18.5 194.5 27.22
18.5 195.5 27.11
18.5 196.5 27
18.5 197.5 26.87
18.5 198.5 26.75
18.5 199.5 26.66
18.5 200.5 26.65
18.5 201.5 26.58
18.5 202.5 26.48
18.5 203.5 26.38
18.5 204.5 26.3
18.5 205.5 26.17
18.5 206.5 26.05
18.5 207.5 25.93
18.5 208.5 25.77
18.5 209.5 25.62
17.5 180.5 27.93
17.5 181.5 27.86
17.5 182.5 27.78
17.5 183.5 27.71
17.5 184.5 27.67
17.5 185.5 27.65
17.5 186.5 27.63
17.5 187.5 27.63
17.5 188.5 27.66
17.5 189.5 27.65
17.5 190.5 27.61
17.5 191.5 27.53
17.5 192.5 27.34
17.5 193.5 27.21
17.5 194.5 27.1
17.5 195.5 27
17.5 196.5 26.85
17.5 197.5 26.72
17.5 198.5 26.61
17.5 199.5 26.52
17.5 200.5 26.47
17.5 201.5 26.41
17.5 202.5 26.35
17.5 203.5 26.3
17.5 204.5 26.25
17.5 205.5 26.13
17.5 206.5 26.02
17.5 207.5 25.9
17.5 208.5 25.76
17.5 209.5 25.62
16.5 180.5 28.06
16.5 181.5 27.96
16.5 182.5 27.87
16.5 183.5 27.77
16.5 184.5 27.7
16.5 185.5 27.68
16.5 186.5 27.68
16.5 187.5 27.67
16.5 188.5 27.66
16.5 189.5 27.59
16.5 190.5 27.52
16.5 191.5 27.42
16.5 192.5 27.23
16.5 193.5 27.11
16.5 194.5 27
16.5 195.5 26.92
16.5 196.5 26.78
16.5 197.5 26.66
16.5 198.5 26.56
16.5 199.5 26.48
16.5 200.5 26.41
16.5 201.5 26.37
16.5 202.5 26.34
16.5 203.5 26.31
16.5 204.5 26.27
16.5 205.5 26.17
16.5 206.5 26.06
16.5 207.5 25.94
16.5 208.5 25.88
16.5 209.5 25.78
15.5 180.5 28.13
15.5 181.5 28.04
15.5 182.5 27.95
15.5 183.5 27.86
15.5 184.5 27.78
15.5 185.5 27.74
15.5 186.5 27.72
15.5 187.5 27.67
15.5 188.5 27.61
15.5 189.5 27.52
15.5 190.5 27.44
15.5 191.5 27.35
15.5 192.5 27.2
15.5 193.5 27.08
15.5 194.5 26.99
15.5 195.5 26.93
15.5 196.5 26.84
15.5 197.5 26.75
15.5 198.5 26.65
15.5 199.5 26.57
15.5 200.5 26.53
15.5 201.5 26.52
15.5 202.5 26.51
15.5 203.5 26.5
15.5 204.5 26.45
15.5 205.5 26.37
15.5 206.5 26.28
15.5 207.5 26.19
15.5 208.5 26.18
15.5 209.5 26.14
14.5 180.5 28.27
14.5 181.5 28.19
14.5 182.5 28.11
14.5 183.5 28.02
14.5 184.5 27.9
14.5 185.5 27.83
14.5 186.5 27.78
14.5 187.5 27.71
14.5 188.5 27.62
14.5 189.5 27.54
14.5 190.5 27.46
14.5 191.5 27.38
14.5 192.5 27.26
14.5 193.5 27.15
14.5 194.5 27.07
14.5 195.5 27.03
14.5 196.5 26.94
14.5 197.5 26.85
14.5 198.5 26.75
14.5 199.5 26.67
14.5 200.5 26.64
14.5 201.5 26.66
14.5 202.5 26.68
14.5 203.5 26.7
14.5 204.5 26.68
14.5 205.5 26.6
14.5 206.5 26.5
14.5 207.5 26.41
14.5 208.5 26.43
14.5 209.5 26.43
13.5 180.5 28.44
13.5 181.5 28.37
13.5 182.5 28.3
13.5 183.5 28.22
13.5 184.5 28.07
13.5 185.5 27.97
13.5 186.5 27.88
13.5 187.5 27.79
13.5 188.5 27.69
13.5 189.5 27.63
13.5 190.5 27.56
13.5 191.5 27.5
13.5 192.5 27.4
13.5 193.5 27.3
13.5 194.5 27.23
13.5 195.5 27.2
13.5 196.5 27.1
13.5 197.5 27
13.5 198.5 26.89
13.5 199.5 26.79
13.5 200.5 26.73
13.5 201.5 26.76
13.5 202.5 26.81
13.5 203.5 26.85
13.5 204.5 26.91
13.5 205.5 26.82
13.5 206.5 26.7
13.5 207.5 26.6
13.5 208.5 26.61
13.5 209.5 26.63
12.5 180.5 28.61
12.5 181.5 28.55
12.5 182.5 28.49
12.5 183.5 28.42
12.5 184.5 28.24
12.5 185.5 28.13
12.5 186.5 28.02
12.5 187.5 27.92
12.5 188.5 27.82
12.5 189.5 27.77
12.5 190.5 27.72
12.5 191.5 27.67
12.5 192.5 27.6
12.5 193.5 27.52
12.5 194.5 27.46
12.5 195.5 27.44
12.5 196.5 27.33
12.5 197.5 27.21
12.5 198.5 27.07
12.5 199.5 26.95
12.5 200.5 26.84
12.5 201.5 26.87
12.5 202.5 26.92
12.5 203.5 26.98
12.5 204.5 27.12
12.5 205.5 27.03
12.5 206.5 26.91
12.5 207.5 26.81
12.5 208.5 26.76
12.5 209.5 26.75
11.5 180.5 28.71
11.5 181.5 28.68
11.5 182.5 28.66
11.5 183.5 28.61
11.5 184.5 28.42
11.5 185.5 28.3
11.5 186.5 28.19
11.5 187.5 28.09
11.5 188.5 28.04
11.5 189.5 28.01
11.5 190.5 27.97
11.5 191.5 27.93
11.5 192.5 27.87
11.5 193.5 27.79
11.5 194.5 27.74
11.5 195.5 27.74
11.5 196.5 27.68
11.5 197.5 27.55
11.5 198.5 27.4
11.5 199.5 27.22
11.5 200.5 27.07
11.5 201.5 27.05
11.5 202.5 27.07
11.5 203.5 27.12
11.5 204.5 27.31
11.5 205.5 27.25
11.5 206.5 27.14
11.5 207.5 27.03
11.5 208.5 26.93
11.5 209.5 26.85
10.5 180.5 28.87
10.5 181.5 28.85
10.5 182.5 28.85
10.5 183.5 28.81
10.5 184.5 28.64
10.5 185.5 28.54
10.5 186.5 28.44
10.5 187.5 28.35
10.5 188.5 28.34
10.5 189.5 28.32
10.5 190.5 28.28
10.5 191.5 28.25
10.5 192.5 28.25
10.5 193.5 28.19
10.5 194.5 28.15
10.5 195.5 28.17
10.5 196.5 28.19
10.5 197.5 28.08
10.5 198.5 27.93
10.5 199.5 27.75
10.5 200.5 27.58
10.5 201.5 27.53
10.5 202.5 27.52
10.5 203.5 27.55
10.5 204.5 27.69
10.5 205.5 27.64
10.5 206.5 27.53
10.5 207.5 27.42
10.5 208.5 27.29
10.5 209.5 27.19
