39.5 180.5 11.01
39.5 181.5 10.91
39.5 182.5 10.83
39.5 183.5 10.92
39.5 184.5 11.21
39.5 185.5 11.17
39.5 186.5 10.9
39.5 187.5 10.73
39.5 188.5 10.93
39.5 189.5 10.83
39.5 190.5 10.6
39.5 191.5 10.45
39.5 192.5 10.49
39.5 193.5 10.48
39.5 194.5 10.4
39.5 195.5 10.27
39.5 196.5 10.12
39.5 197.5 9.99
39.5 198.5 9.92
39.5 199.5 9.95
39.5 200.5 10.13
39.5 201.5 10.17
39.5 202.5 10.16
39.5 203.5 10.21
39.5 204.5 10.47
39.5 205.5 10.41
39.5 206.5 10.29
39.5 207.5 10.29
39.5 208.5 10.58
39.5 209.5 10.77
38.5 180.5 12.28
38.5 181.5 12.19
38.5 182.5 12.15
38.5 183.5 12.22
38.5 184.5 12.33
38.5 185.5 12.22
38.5 186.5 11.92
38.5 187.5 11.74
38.5 188.5 11.9
38.5 189.5 11.77
38.5 190.5 11.48
38.5 191.5 11.28
38.5 192.5 11.3
38.5 193.5 11.27
38.5 194.5 11.18
38.5 195.5 11.02
38.5 196.5 10.8
38.5 197.5 10.62
38.5 198.5 10.53
38.5 199.5 10.56
38.5 200.5 10.82
38.5 201.5 10.84
38.5 202.5 10.82
38.5 203.5 10.86
38.5 204.5 11.14
38.5 205.5 11.09
38.5 206.5 10.98
38.5 207.5 10.96
38.5 208.5 11.24
38.5 209.5 11.4
37.5 180.5 13.37
37.5 181.5 13.24
37.5 182.5 13.21
37.5 183.5 13.24
37.5 184.5 13.09
37.5 185.5 12.91
37.5 186.5 12.61
37.5 187.5 12.4
37.5 188.5 12.5
37.5 189.5 12.31
37.5 190.5 11.99
37.5 191.5 11.76
37.5 192.5 11.79
37.5 193.5 11.76
37.5 194.5 11.68
37.5 195.5 11.54
37.5 196.5 11.36
37.5 197.5 11.21
37.5 198.5 11.14
37.5 199.5 11.19
37.5 200.5 11.47
37.5 201.5 11.49
37.5 202.5 11.45
37.5 203.5 11.48
37.5 204.5 11.72
37.5 205.5 11.7
37.5 206.5 11.61
37.5 207.5 11.62
37.5 208.5 11.88
37.5 209.5 12.03
36.5 180.5 14.13
36.5 181.5 13.91
36.5 182.5 13.88
36.5 183.5 13.88
36.5 184.5 13.49
36.5 185.5 13.25
36.5 186.5 12.95
36.5 187.5 12.74
36.5 188.5 12.8
36.5 189.5 12.57
36.5 190.5 12.23
36.5 191.5 12.01
36.5 192.5 12.1
36.5 193.5 12.08
36.5 194.5 12.03
36.5 195.5 11.94
36.5 196.5 11.87
36.5 197.5 11.79
36.5 198.5 11.76
36.5 199.5 11.83
36.5 200.5 12.1
36.5 201.5 12.12
36.5 202.5 12.09
36.5 203.5 12.11
36.5 204.5 12.31
36.5 205.5 12.29
36.5 206.5 12.22
36.5 207.5 12.26
36.5 208.5 12.53
36.5 209.5 12.68
35.5 180.5 14.55
35.5 181.5 14.3
35.5 182.5 14.29
35.5 183.5 14.32
35.5 184.5 14.04
35.5 185.5 13.7
35.5 186.5 13.33
35.5 187.5 13.04
35.5 188.5 12.94
35.5 189.5 12.74
35.5 190.5 12.48
35.5 191.5 12.33
35.5 192.5 12.53
35.5 193.5 12.53
35.5 194.5 12.51
35.5 195.5 12.49
35.5 196.5 12.54
35.5 197.5 12.52
35.5 198.5 12.52
35.5 199.5 12.59
35.5 200.5 12.78
35.5 201.5 12.82
35.5 202.5 12.83
35.5 203.5 12.88
35.5 204.5 13.04
35.5 205.5 13.03
35.5 206.5 12.98
35.5 207.5 13.03
35.5 208.5 13.37
35.5 209.5 13.47
34.5 180.5 14.85
34.5 181.5 14.64
34.5 182.5 14.67
34.5 183.5 14.73
34.5 184.5 14.55
34.5 185.5 14.19
34.5 186.5 13.82
34.5 187.5 13.49
34.5 188.5 13.39
34.5 189.5 13.25
34.5 190.5 13.08
34.5 191.5 13.02
34.5 192.5 13.24
34.5 193.5 13.25
34.5 194.5 13.25
34.5 195.5 13.24
34.5 196.5 13.34
34.5 197.5 13.34
34.5 198.5 13.36
34.5 199.5 13.44
34.5 200.5 13.57
34.5 201.5 13.63
34.5 202.5 13.66
34.5 203.5 13.74
34.5 204.5 13.88
34.5 205.5 13.9
34.5 206.5 13.88
34.5 207.5 13.95
34.5 208.5 14.28
34.5 209.5 14.38
33.5 180.5 15.32
33.5 181.5 15.24
33.5 182.5 15.32
33.5 183.5 15.4
33.5 184.5 15.32
33.5 185.5 14.97
33.5 186.5 14.59
33.5 187.5 14.24
33.5 188.5 14.12
33.5 189.5 14.05
33.5 190.5 14.01
33.5 191.5 14.04
33.5 192.5 14.22
33.5 193.5 14.22
33.5 194.5 14.23
33.5 195.5 14.2
33.5 196.5 14.22
33.5 197.5 14.22
33.5 198.5 14.24
33.5 199.5 14.31
33.5 200.5 14.39
33.5 201.5 14.44
33.5 202.5 14.49
33.5 203.5 14.58
33.5 204.5 14.73
33.5 205.5 14.78
33.5 206.5 14.79
33.5 207.5 14.87
33.5 208.5 15.13
33.5 209.5 15.22
32.5 180.5 16.01
32.5 181.5 16.09
32.5 182.5 16.22
32.5 183.5 16.33
32.5 184.5 16.33
32.5 185.5 15.98
32.5 186.5 15.6
32.5 187.5 15.22
32.5 188.5 15.13
32.5 189.5 15.13
32.5 190.5 15.2
32.5 191.5 15.29
32.5 192.5 15.38
32.5 193.5 15.34
32.5 194.5 15.32
32.5 195.5 15.24
32.5 196.5 15.13
32.5 197.5 15.1
32.5 198.5 15.12
32.5 199.5 15.17
32.5 200.5 15.22
32.5 201.5 15.26
32.5 202.5 15.32
32.5 203.5 15.41
32.5 204.5 15.56
32.5 205.5 15.63
32.5 206.5 15.67
32.5 207.5 15.74
32.5 208.5 15.89
32.5 209.5 15.94
31.5 180.5 16.74
31.5 181.5 16.92
31.5 182.5 17.12
31.5 183.5 17.28
31.5 184.5 17.39
31.5 185.5 17.13
31.5 186.5 16.85
31.5 187.5 16.61
31.5 188.5 16.45
31.5 189.5 16.58
31.5 190.5 16.73
31.5 191.5 16.84
31.5 192.5 16.79
31.5 193.5 16.7
31.5 194.5 16.63
31.5 195.5 16.5
31.5 196.5 16.19
31.5 197.5 16.14
31.5 198.5 16.16
31.5 199.5 16.22
31.5 200.5 16.26
31.5 201.5 16.31
31.5 202.5 16.35
31.5 203.5 16.4
31.5 204.5 16.48
31.5 205.5 16.53
31.5 206.5 16.58
31.5 207.5 16.63
31.5 208.5 16.66
31.5 209.5 16.67
30.5 180.5 17.53
30.5 181.5 17.68
30.5 182.5 17.85
30.5 183.5 17.96
30.5 184.5 17.99
30.5 185.5 17.75
30.5 186.5 17.53
30.5 187.5 17.41
30.5 188.5 17.56
30.5 189.5 17.77
30.5 190.5 17.97
30.5 191.5 18.11
30.5 192.5 18.07
30.5 193.5 18
30.5 194.5 17.91
30.5 195.5 17.78
30.5 196.5 17.43
30.5 197.5 17.4
30.5 198.5 17.45
30.5 199.5 17.51
30.5 200.5 17.47
30.5 201.5 17.52
30.5 202.5 17.56
30.5 203.5 17.57
30.5 204.5 17.52
30.5 205.5 17.54
30.5 206.5 17.6
30.5 207.5 17.67
30.5 208.5 17.7
30.5 209.5 17.71
29.5 180.5 18.54
29.5 181.5 18.62
29.5 182.5 18.72
29.5 183.5 18.73
29.5 184.5 18.63
29.5 185.5 18.42
29.5 186.5 18.29
29.5 187.5 18.29
29.5 188.5 18.61
29.5 189.5 18.85
29.5 190.5 19.04
29.5 191.5 19.18
29.5 192.5 19.17
29.5 193.5 19.15
29.5 194.5 19.09
29.5 195.5 18.99
29.5 196.5 18.71
29.5 197.5 18.73
29.5 198.5 18.81
29.5 199.5 18.89
29.5 200.5 18.73
29.5 201.5 18.81
29.5 202.5 18.85
29.5 203.5 18.81
29.5 204.5 18.66
29.5 205.5 18.66
29.5 206.5 18.72
29.5 207.5 18.81
29.5 208.5 18.84
29.5 209.5 18.84
28.5 180.5 19.74
28.5 181.5 19.76
28.5 182.5 19.81
28.5 183.5 19.74
28.5 184.5 19.52
28.5 185.5 19.34
28.5 186.5 19.32
28.5 187.5 19.41
28.5 188.5 19.64
28.5 189.5 19.82
28.5 190.5 19.95
28.5 191.5 20.04
28.5 192.5 19.99
28.5 193.5 20.03
28.5 194.5 20.01
28.5 195.5 19.99
28.5 196.5 19.86
28.5 197.5 19.93
28.5 198.5 20.03
28.5 199.5 20.14
28.5 200.5 19.91
28.5 201.5 20.02
28.5 202.5 20.06
28.5 203.5 20
28.5 204.5 19.8
28.5 205.5 19.77
28.5 206.5 19.82
28.5 207.5 19.91
28.5 208.5 19.94
28.5 209.5 19.92
27.5 180.5 20.99
27.5 181.5 21.02
27.5 182.5 21.07
27.5 183.5 20.98
27.5 184.5 20.72
27.5 185.5 20.61
27.5 186.5 20.66
27.5 187.5 20.75
27.5 188.5 20.6
27.5 189.5 20.66
27.5 190.5 20.68
27.5 191.5 20.68
27.5 192.5 20.61
27.5 193.5 20.64
27.5 194.5 20.64
27.5 195.5 20.7
27.5 196.5 20.72
27.5 197.5 20.81
27.5 198.5 20.91
27.5 199.5 21.05
27.5 200.5 20.97
27.5 201.5 21.07
27.5 202.5 21.05
27.5 203.5 20.92
27.5 204.5 20.74
27.5 205.5 20.7
27.5 206.5 20.74
27.5 207.5 20.85
27.5 208.5 20.94
27.5 209.5 20.91
26.5 180.5 22.12
26.5 181.5 22.17
26.5 182.5 22.24
26.5 183.5 22.18
26.5 184.5 21.91
26.5 185.5 21.88
26.5 186.5 21.98
26.5 187.5 22.05
26.5 188.5 21.72
26.5 189.5 21.64
26.5 190.5 21.55
26.5 191.5 21.43
26.5 192.5 21.27
26.5 193.5 21.27
26.5 194.5 21.31
26.5 195.5 21.43
26.5 196.5 21.49
26.5 197.5 21.56
26.5 198.5 21.6
26.5 199.5 21.71
26.5 200.5 21.68
26.5 201.5 21.78
26.5 202.5 21.75
26.5 203.5 21.62
26.5 204.5 21.49
26.5 205.5 21.45
26.5 206.5 21.47
26.5 207.5 21.59
26.5 208.5 21.69
26.5 209.5 21.62
25.5 180.5 23.08
25.5 181.5 23.17
25.5 182.5 23.26
25.5 183.5 23.25
25.5 184.5 23.01
25.5 185.5 23.05
25.5 186.5 23.18
25.5 187.5 23.21
25.5 188.5 22.82
25.5 189.5 22.66
25.5 190.5 22.47
25.5 191.5 22.25
25.5 192.5 22.09
25.5 193.5 22.08
25.5 194.5 22.14
25.5 195.5 22.29
25.5 196.5 22.34
25.5 197.5 22.36
25.5 198.5 22.32
25.5 199.5 22.35
25.5 200.5 22.33
25.5 201.5 22.42
25.5 202.5 22.38
25.5 203.5 22.28
25.5 204.5 22.18
25.5 205.5 22.15
25.5 206.5 22.16
25.5 207.5 22.25
25.5 208.5 22.31
25.5 209.5 22.19
24.5 180.5 23.79
24.5 181.5 23.88
24.5 182.5 23.99
24.5 183.5 24.03
24.5 184.5 23.82
24.5 185.5 23.89
24.5 186.5 24.02
24.5 187.5 24.02
24.5 188.5 23.69
24.5 189.5 23.51
24.5 190.5 23.31
24.5 191.5 23.11
24.5 192.5 23.06
24.5 193.5 23.07
24.5 194.5 23.13
24.5 195.5 23.24
24.5 196.5 23.26
24.5 197.5 23.2
24.5 198.5 23.07
24.5 199.5 23.02
24.5 200.5 22.98
24.5 201.5 23.04
24.5 202.5 23.01
24.5 203.5 22.96
24.5 204.5 22.86
24.5 205.5 22.86
24.5 206.5 22.85
24.5 207.5 22.88
24.5 208.5 22.85
24.5 209.5 22.68
23.5 180.5 24.16
23.5 181.5 24.25
23.5 182.5 24.37
23.5 183.5 24.44
23.5 184.5 24.32
23.5 185.5 24.38
23.5 186.5 24.47
23.5 187.5 24.43
23.5 188.5 24.22
23.5 189.5 24.11
23.5 190.5 24
23.5 191.5 23.95
23.5 192.5 24.14
23.5 193.5 24.17
23.5 194.5 24.16
23.5 195.5 24.14
23.5 196.5 24.16
23.5 197.5 24.03
23.5 198.5 23.86
23.5 199.5 23.75
23.5 200.5 23.74
23.5 201.5 23.75
23.5 202.5 23.7
23.5 203.5 23.64
23.5 204.5 23.54
23.5 205.5 23.51
23.5 206.5 23.45
23.5 207.5 23.4
23.5 208.5 23.3
23.5 209.5 23.13
22.5 180.5 24.54
22.5 181.5 24.59
22.5 182.5 24.71
22.5 183.5 24.78
22.5 184.5 24.73
22.5 185.5 24.8
22.5 186.5 24.88
22.5 187.5 24.85
22.5 188.5 24.69
22.5 189.5 24.64
22.5 190.5 24.59
22.5 191.5 24.61
22.5 192.5 24.87
22.5 193.5 24.92
22.5 194.5 24.89
22.5 195.5 24.8
22.5 196.5 24.75
22.5 197.5 24.59
22.5 198.5 24.4
22.5 199.5 24.29
22.5 200.5 24.33
22.5 201.5 24.33
22.5 202.5 24.29
22.5 203.5 24.23
22.5 204.5 24.1
22.5 205.5 24.04
22.5 206.5 23.92
22.5 207.5 23.8
22.5 208.5 23.61
22.5 209.5 23.4
21.5 180.5 24.96
21.5 181.5 24.98
21.5 182.5 25.07
21.5 183.5 25.14
21.5 184.5 25.14
21.5 185.5 25.22
21.5 186.5 25.3
21.5 187.5 25.29
21.5 188.5 25.22
21.5 189.5 25.21
21.5 190.5 25.2
21.5 191.5 25.24
21.5 192.5 25.41
21.5 193.5 25.43
21.5 194.5 25.37
21.5 195.5 25.24
21.5 196.5 25.13
21.5 197.5 24.96
21.5 198.5 24.8
21.5 199.5 24.72
21.5 200.5 24.8
21.5 201.5 24.8
21.5 202.5 24.75
21.5 203.5 24.65
21.5 204.5 24.46
21.5 205.5 24.34
21.5 206.5 24.19
21.5 207.5 24.02
21.5 208.5 23.82
21.5 209.5 23.61
20.5 180.5 25.46
20.5 181.5 25.47
20.5 182.5 25.53
20.5 183.5 25.58
20.5 184.5 25.57
20.5 185.5 25.66
20.5 186.5 25.74
20.5 187.5 25.74
20.5 188.5 25.75
20.5 189.5 25.77
20.5 190.5 25.77
20.5 191.5 25.79
20.5 192.5 25.83
20.5 193.5 25.79
20.5 194.5 25.69
20.5 195.5 25.55
20.5 196.5 25.38
20.5 197.5 25.25
20.5 198.5 25.13
20.5 199.5 25.09
20.5 200.5 25.16
20.5 201.5 25.14
20.5 202.5 25.04
20.5 203.5 24.88
20.5 204.5 24.67
20.5 205.5 24.49
20.5 206.5 24.31
20.5 207.5 24.13
20.5 208.5 24.01
20.5 209.5 23.82
19.5 180.5 26
19.5 181.5 26.02
19.5 182.5 26.06
19.5 183.5 26.06
19.5 184.5 25.96
19.5 185.5 26.03
19.5 186.5 26.1
19.5 187.5 26.13
19.5 188.5 26.19
19.5 189.5 26.2
19.5 190.5 26.19
19.5 191.5 26.17
19.5 192.5 26.12
19.5 193.5 26.03
19.5 194.5 25.92
19.5 195.5 25.78
19.5 196.5 25.62
19.5 197.5 25.54
19.5 198.5 25.47
19.5 199.5 25.41
19.5 200.5 25.39
19.5 201.5 25.31
19.5 202.5 25.16
19.5 203.5 24.95
19.5 204.5 24.79
19.5 205.5 24.58
19.5 206.5 24.38
19.5 207.5 24.23
19.5 208.5 24.17
19.5 209.5 24.03
18.5 180.5 26.44
18.5 181.5 26.43
18.5 182.5 26.4
18.5 183.5 26.32
18.5 184.5 26.15
18.5 185.5 26.19
18.5 186.5 26.25
18.5 187.5 26.27
18.5 188.5 26.3
18.5 189.5 26.3
18.5 190.5 26.28
18.5 191.5 26.26
18.5 192.5 26.17
18.5 193.5 26.07
18.5 194.5 25.95
18.5 195.5 25.82
18.5 196.5 25.68
18.5 197.5 25.62
18.5 198.5 25.54
18.5 199.5 25.45
18.5 200.5 25.4
18.5 201.5 25.28
18.5 202.5 25.1
18.5 203.5 24.9
18.5 204.5 24.81
18.5 205.5 24.63
18.5 206.5 24.47
18.5 207.5 24.36
18.5 208.5 24.33
18.5 209.5 24.22
17.5 180.5 26.66
17.5 181.5 26.59
17.5 182.5 26.5
17.5 183.5 26.36
17.5 184.5 26.17
17.5 185.5 26.18
17.5 186.5 26.22
17.5 187.5 26.24
17.5 188.5 26.23
17.5 189.5 26.22
17.5 190.5 26.2
17.5 191.5 26.17
17.5 192.5 26.09
17.5 193.5 25.98
17.5 194.5 25.86
17.5 195.5 25.73
17.5 196.5 25.62
17.5 197.5 25.54
17.5 198.5 25.44
17.5 199.5 25.34
17.5 200.5 25.28
17.5 201.5 25.14
17.5 202.5 24.98
17.5 203.5 24.82
17.5 204.5 24.8
17.5 205.5 24.68
17.5 206.5 24.58
17.5 207.5 24.52
17.5 208.5 24.49
17.5 209.5 24.4
16.5 180.5 26.66
16.5 181.5 26.56
16.5 182.5 26.43
16.5 183.5 26.28
16.5 184.5 26.14
16.5 185.5 26.14
16.5 186.5 26.17
16.5 187.5 26.18
16.5 188.5 26.16
16.5 189.5 26.14
16.5 190.5 26.11
16.5 191.5 26.09
16.5 192.5 25.99
16.5 193.5 25.88
16.5 194.5 25.76
16.5 195.5 25.63
16.5 196.5 25.53
16.5 197.5 25.43
16.5 198.5 25.31
16.5 199.5 25.19
16.5 200.5 25.17
16.5 201.5 25.05
16.5 202.5 24.92
16.5 203.5 24.82
16.5 204.5 24.87
16.5 205.5 24.81
16.5 206.5 24.76
16.5 207.5 24.72
16.5 208.5 24.69
16.5 209.5 24.6
15.5 180.5 26.54
15.5 181.5 26.42
15.5 182.5 26.3
15.5 183.5 26.2
15.5 184.5 26.16
15.5 185.5 26.17
15.5 186.5 26.2
15.5 187.5 26.23
15.5 188.5 26.23
15.5 189.5 26.2
15.5 190.5 26.17
15.5 191.5 26.12
15.5 192.5 26
15.5 193.5 25.91
15.5 194.5 25.82
15.5 195.5 25.7
15.5 196.5 25.6
15.5 197.5 25.46
15.5 198.5 25.31
15.5 199.5 25.17
15.5 200.5 25.19
15.5 201.5 25.11
15.5 202.5 25.04
15.5 203.5 25.01
15.5 204.5 25.12
15.5 205.5 25.1
15.5 206.5 25.06
15.5 207.5 25.01
15.5 208.5 24.93
15.5 209.5 24.82
14.5 180.5 26.53
14.5 181.5 26.42
14.5 182.5 26.32
14.5 183.5 26.25
14.5 184.5 26.27
14.5 185.5 26.29
14.5 186.5 26.3
14.5 187.5 26.32
14.5 188.5 26.33
14.5 189.5 26.29
14.5 190.5 26.24
14.5 191.5 26.18
14.5 192.5 26.12
14.5 193.5 26.06
14.5 194.5 26
14.5 195.5 25.92
14.5 196.5 25.82
14.5 197.5 25.66
14.5 198.5 25.49
14.5 199.5 25.33
14.5 200.5 25.33
14.5 201.5 25.27
14.5 202.5 25.24
14.5 203.5 25.24
14.5 204.5 25.37
14.5 205.5 25.38
14.5 206.5 25.36
14.5 207.5 25.31
14.5 208.5 25.18
14.5 209.5 25.08
13.5 180.5 26.62
13.5 181.5 26.53
13.5 182.5 26.47
13.5 183.5 26.44
13.5 184.5 26.47
13.5 185.5 26.48
13.5 186.5 26.47
13.5 187.5 26.46
13.5 188.5 26.45
13.5 189.5 26.39
13.5 190.5 26.32
13.5 191.5 26.26
13.5 192.5 26.3
13.5 193.5 26.3
13.5 194.5 26.28
13.5 195.5 26.24
13.5 196.5 26.16
13.5 197.5 26.01
13.5 198.5 25.84
13.5 199.5 25.68
13.5 200.5 25.61
13.5 201.5 25.55
13.5 202.5 25.52
13.5 203.5 25.53
13.5 204.5 25.62
13.5 205.5 25.63
13.5 206.5 25.62
13.5 207.5 25.59
13.5 208.5 25.45
13.5 209.5 25.38
12.5 180.5 26.78
12.5 181.5 26.74
12.5 182.5 26.72
12.5 183.5 26.72
12.5 184.5 26.73
12.5 185.5 26.72
12.5 186.5 26.67
12.5 187.5 26.63
12.5 188.5 26.59
12.5 189.5 26.53
12.5 190.5 26.44
12.5 191.5 26.39
12.5 192.5 26.51
12.5 193.5 26.55
12.5 194.5 26.57
12.5 195.5 26.59
12.5 196.5 26.55
12.5 197.5 26.43
12.5 198.5 26.29
12.5 199.5 26.13
12.5 200.5 25.98
12.5 201.5 25.9
12.5 202.5 25.87
12.5 203.5 25.85
12.5 204.5 25.84
12.5 205.5 25.84
12.5 206.5 25.83
12.5 207.5 25.81
12.5 208.5 25.74
12.5 209.5 25.73
11.5 180.5 27.03
11.5 181.5 27.03
11.5 182.5 27.03
11.5 183.5 27.04
11.5 184.5 27.02
11.5 185.5 27.01
11.5 186.5 26.96
11.5 187.5 26.91
11.5 188.5 26.84
11.5 189.5 26.76
11.5 190.5 26.67
11.5 191.5 26.61
11.5 192.5 26.7
11.5 193.5 26.76
11.5 194.5 26.82
11.5 195.5 26.88
11.5 196.5 26.88
11.5 197.5 26.78
11.5 198.5 26.67
11.5 199.5 26.54
11.5 200.5 26.37
11.5 201.5 26.31
11.5 202.5 26.26
11.5 203.5 26.19
11.5 204.5 26.06
11.5 205.5 26
11.5 206.5 25.97
11.5 207.5 25.97
11.5 208.5 26.04
11.5 209.5 26.13
10.5 180.5 27.32
10.5 181.5 27.32
10.5 182.5 27.33
10.5 183.5 27.35
10.5 184.5 27.37
10.5 185.5 27.36
10.5 186.5 27.31
10.5 187.5 27.26
10.5 188.5 27.2
10.5 189.5 27.12
10.5 190.5 27.02
10.5 191.5 26.94
10.5 192.5 26.96
10.5 193.5 27
10.5 194.5 27.04
10.5 195.5 27.09
10.5 196.5 27.12
10.5 197.5 27.05
10.5 198.5 26.97
10.5 199.5 26.89
10.5 200.5 26.75
10.5 201.5 26.71
10.5 202.5 26.67
10.5 203.5 26.58
10.5 204.5 26.42
10.5 205.5 26.34
10.5 206.5 26.3
10.5 207.5 26.29
10.5 208.5 26.38
10.5 209.5 26.5
