39.5 180.5 20.9
39.5 181.5 20.86
39.5 182.5 21
39.5 183.5 21.15
39.5 184.5 20.95
39.5 185.5 21.07
39.5 186.5 21.2
39.5 187.5 21.34
39.5 188.5 21.21
39.5 189.5 21.29
39.5 190.5 21.35
39.5 191.5 21.45
39.5 192.5 21.45
39.5 193.5 21.64
39.5 194.5 21.77
39.5 195.5 21.91
39.5 196.5 22.02
39.5 197.5 22.19
39.5 198.5 22.33
39.5 199.5 22.38
39.5 200.5 22.23
39.5 201.5 22.18
39.5 202.5 22.16
39.5 203.5 22.12
39.5 204.5 22
39.5 205.5 21.99
39.5 206.5 21.99
39.5 207.5 21.95
39.5 208.5 21.76
39.5 209.5 21.55
38.5 180.5 22.03
38.5 181.5 22.02
38.5 182.5 22.17
38.5 183.5 22.28
38.5 184.5 22
38.5 185.5 22.09
38.5 186.5 22.25
38.5 187.5 22.43
38.5 188.5 22.3
38.5 189.5 22.37
38.5 190.5 22.42
38.5 191.5 22.51
38.5 192.5 22.53
38.5 193.5 22.68
38.5 194.5 22.75
38.5 195.5 22.82
38.5 196.5 22.97
38.5 197.5 23.11
38.5 198.5 23.2
38.5 199.5 23.18
38.5 200.5 22.96
38.5 201.5 22.86
38.5 202.5 22.82
38.5 203.5 22.76
38.5 204.5 22.63
38.5 205.5 22.61
38.5 206.5 22.6
38.5 207.5 22.53
38.5 208.5 22.32
38.5 209.5 22.06
37.5 180.5 22.89
37.5 181.5 22.92
37.5 182.5 23.08
37.5 183.5 23.17
37.5 184.5 22.85
37.5 185.5 22.94
37.5 186.5 23.13
37.5 187.5 23.34
37.5 188.5 23.22
37.5 189.5 23.25
37.5 190.5 23.25
37.5 191.5 23.31
37.5 192.5 23.38
37.5 193.5 23.49
37.5 194.5 23.48
37.5 195.5 23.5
37.5 196.5 23.71
37.5 197.5 23.82
37.5 198.5 23.85
37.5 199.5 23.78
37.5 200.5 23.56
37.5 201.5 23.44
37.5 202.5 23.38
37.5 203.5 23.32
37.5 204.5 23.19
37.5 205.5 23.15
37.5 206.5 23.11
37.5 207.5 23.03
37.5 208.5 22.8
37.5 209.5 22.52
36.5 180.5 23.47
36.5 181.5 23.53
36.5 182.5 23.7
36.5 183.5 23.79
36.5 184.5 23.53
36.5 185.5 23.66
36.5 186.5 23.88
36.5 187.5 24.13
36.5 188.5 24.07
36.5 189.5 24.06
36.5 190.5 24
36.5 191.5 24.02
36.5 192.5 24.1
36.5 193.5 24.15
36.5 194.5 24.07
36.5 195.5 24.04
36.5 196.5 24.29
36.5 197.5 24.37
36.5 198.5 24.34
36.5 199.5 24.25
36.5 200.5 24.08
36.5 201.5 23.96
36.5 202.5 23.9
36.5 203.5 23.85
36.5 204.5 23.72
36.5 205.5 23.67
36.5 206.5 23.6
36.5 207.5 23.48
36.5 208.5 23.24
36.5 209.5 22.95
35.5 180.5 23.94
35.5 181.5 23.99
35.5 182.5 24.13
35.5 183.5 24.21
35.5 184.5 24.1
35.5 185.5 24.27
35.5 186.5 24.51
35.5 187.5 24.78
35.5 188.5 24.79
35.5 189.5 24.79
35.5 190.5 24.73
35.5 191.5 24.73
35.5 192.5 24.75
35.5 193.5 24.75
35.5 194.5 24.63
35.5 195.5 24.57
35.5 196.5 24.74
35.5 197.5 24.77
35.5 198.5 24.7
35.5 199.5 24.6
35.5 200.5 24.5
35.5 201.5 24.43
35.5 202.5 24.4
35.5 203.5 24.37
35.5 204.5 24.23
35.5 205.5 24.15
35.5 206.5 24.04
35.5 207.5 23.89
35.5 208.5 23.67
35.5 209.5 23.4
34.5 180.5 24.34
34.5 181.5 24.38
34.5 182.5 24.5
34.5 183.5 24.59
34.5 184.5 24.6
34.5 185.5 24.79
34.5 186.5 25.03
34.5 187.5 25.29
34.5 188.5 25.44
34.5 189.5 25.45
34.5 190.5 25.37
34.5 191.5 25.34
34.5 192.5 25.3
34.5 193.5 25.25
34.5 194.5 25.11
34.5 195.5 25.02
34.5 196.5 25.11
34.5 197.5 25.1
34.5 198.5 25.02
34.5 199.5 24.91
34.5 200.5 24.82
34.5 201.5 24.74
34.5 202.5 24.72
34.5 203.5 24.69
34.5 204.5 24.55
34.5 205.5 24.46
34.5 206.5 24.33
34.5 207.5 24.15
34.5 208.5 23.92
34.5 209.5 23.66
33.5 180.5 24.87
33.5 181.5 24.88
33.5 182.5 24.97
33.5 183.5 25.04
33.5 184.5 25.08
33.5 185.5 25.25
33.5 186.5 25.45
33.5 187.5 25.68
33.5 188.5 25.89
33.5 189.5 25.91
33.5 190.5 25.84
33.5 191.5 25.79
33.5 192.5 25.74
33.5 193.5 25.65
33.5 194.5 25.51
33.5 195.5 25.39
33.5 196.5 25.38
33.5 197.5 25.34
33.5 198.5 25.25
33.5 199.5 25.14
33.5 200.5 25.02
33.5 201.5 24.92
33.5 202.5 24.88
33.5 203.5 24.86
33.5 204.5 24.74
33.5 205.5 24.65
33.5 206.5 24.52
33.5 207.5 24.35
33.5 208.5 24.15
33.5 209.5 23.9
32.5 180.5 25.55
32.5 181.5 25.53
32.5 182.5 25.56
32.5 183.5 25.58
32.5 184.5 25.57
32.5 185.5 25.7
32.5 186.5 25.86
32.5 187.5 26.03
32.5 188.5 26.19
32.5 189.5 26.2
32.5 190.5 26.15
32.5 191.5 26.11
32.5 192.5 26.08
32.5 193.5 25.97
32.5 194.5 25.84
32.5 195.5 25.71
32.5 196.5 25.6
32.5 197.5 25.53
32.5 198.5 25.45
32.5 199.5 25.34
32.5 200.5 25.2
32.5 201.5 25.07
32.5 202.5 25
32.5 203.5 24.96
32.5 204.5 24.86
32.5 205.5 24.77
32.5 206.5 24.66
32.5 207.5 24.52
32.5 208.5 24.36
32.5 209.5 24.15
31.5 180.5 26.24
31.5 181.5 26.21
31.5 182.5 26.17
31.5 183.5 26.12
31.5 184.5 26.1
31.5 185.5 26.18
31.5 186.5 26.28
31.5 187.5 26.36
31.5 188.5 26.4
31.5 189.5 26.38
31.5 190.5 26.36
31.5 191.5 26.34
31.5 192.5 26.28
31.5 193.5 26.2
31.5 194.5 26.11
31.5 195.5 25.99
31.5 196.5 25.82
31.5 197.5 25.73
31.5 198.5 25.66
31.5 199.5 25.57
31.5 200.5 25.42
31.5 201.5 25.29
31.5 202.5 25.22
31.5 203.5 25.16
31.5 204.5 25.02
31.5 205.5 24.91
31.5 206.5 24.79
31.5 207.5 24.65
31.5 208.5 24.51
31.5 209.5 24.32
30.5 180.5 26.62
30.5 181.5 26.58
30.5 182.5 26.53
30.5 183.5 26.5
30.5 184.5 26.58
30.5 185.5 26.65
30.5 186.5 26.71
30.5 187.5 26.74
30.5 188.5 26.7
30.5 189.5 26.62
30.5 190.5 26.56
30.5 191.5 26.52
30.5 192.5 26.42
30.5 193.5 26.35
30.5 194.5 26.28
30.5 195.5 26.17
30.5 196.5 26.03
30.5 197.5 25.95
30.5 198.5 25.89
30.5 199.5 25.83
30.5 200.5 25.67
30.5 201.5 25.54
30.5 202.5 25.44
30.5 203.5 25.33
30.5 204.5 25.09
30.5 205.5 24.96
30.5 206.5 24.84
30.5 207.5 24.72
30.5 208.5 24.53
30.5 209.5 24.37
29.5 180.5 26.81
29.5 181.5 26.79
29.5 182.5 26.76
29.5 183.5 26.78
29.5 184.5 26.93
29.5 185.5 26.99
29.5 186.5 27.01
29.5 187.5 26.99
29.5 188.5 26.91
29.5 189.5 26.78
29.5 190.5 26.68
29.5 191.5 26.6
29.5 192.5 26.51
29.5 193.5 26.46
29.5 194.5 26.4
29.5 195.5 26.32
29.5 196.5 26.2
29.5 197.5 26.13
29.5 198.5 26.09
29.5 199.5 26.03
29.5 200.5 25.86
29.5 201.5 25.71
29.5 202.5 25.59
29.5 203.5 25.43
29.5 204.5 25.14
29.5 205.5 25
29.5 206.5 24.88
29.5 207.5 24.76
29.5 208.5 24.55
29.5 209.5 24.41
28.5 180.5 26.99
28.5 181.5 27
28.5 182.5 27
28.5 183.5 27.04
28.5 184.5 27.18
28.5 185.5 27.21
28.5 186.5 27.18
28.5 187.5 27.12
28.5 188.5 27.02
28.5 189.5 26.87
28.5 190.5 26.75
28.5 191.5 26.66
28.5 192.5 26.62
28.5 193.5 26.57
28.5 194.5 26.52
28.5 195.5 26.45
28.5 196.5 26.36
28.5 197.5 26.28
28.5 198.5 26.24
28.5 199.5 26.18
28.5 200.5 25.95
28.5 201.5 25.79
28.5 202.5 25.64
28.5 203.5 25.46
28.5 204.5 25.17
28.5 205.5 25.03
28.5 206.5 24.92
28.5 207.5 24.8
28.5 208.5 24.61
28.5 209.5 24.48
27.5 180.5 27.27
27.5 181.5 27.32
27.5 182.5 27.34
27.5 183.5 27.36
27.5 184.5 27.39
27.5 185.5 27.36
27.5 186.5 27.28
27.5 187.5 27.19
27.5 188.5 27.12
27.5 189.5 26.98
27.5 190.5 26.86
27.5 191.5 26.77
27.5 192.5 26.81
27.5 193.5 26.75
27.5 194.5 26.67
27.5 195.5 26.6
27.5 196.5 26.52
27.5 197.5 26.43
27.5 198.5 26.36
27.5 199.5 26.26
27.5 200.5 25.98
27.5 201.5 25.8
27.5 202.5 25.65
27.5 203.5 25.48
27.5 204.5 25.23
27.5 205.5 25.09
27.5 206.5 24.98
27.5 207.5 24.85
27.5 208.5 24.72
27.5 209.5 24.6
26.5 180.5 27.58
26.5 181.5 27.64
26.5 182.5 27.65
26.5 183.5 27.66
26.5 184.5 27.61
26.5 185.5 27.54
26.5 186.5 27.45
26.5 187.5 27.34
26.5 188.5 27.24
26.5 189.5 27.11
26.5 190.5 27
26.5 191.5 26.92
26.5 192.5 26.95
26.5 193.5 26.88
26.5 194.5 26.79
26.5 195.5 26.7
26.5 196.5 26.59
26.5 197.5 26.48
26.5 198.5 26.39
26.5 199.5 26.29
26.5 200.5 26.01
26.5 201.5 25.84
26.5 202.5 25.69
26.5 203.5 25.54
26.5 204.5 25.35
26.5 205.5 25.23
26.5 206.5 25.11
26.5 207.5 24.98
26.5 208.5 24.89
26.5 209.5 24.76
25.5 180.5 27.87
25.5 181.5 27.93
25.5 182.5 27.93
25.5 183.5 27.9
25.5 184.5 27.83
25.5 185.5 27.73
25.5 186.5 27.64
25.5 187.5 27.53
25.5 188.5 27.4
25.5 189.5 27.28
25.5 190.5 27.18
25.5 191.5 27.1
25.5 192.5 27.08
25.5 193.5 26.99
25.5 194.5 26.89
25.5 195.5 26.78
25.5 196.5 26.64
25.5 197.5 26.51
25.5 198.5 26.4
25.5 199.5 26.29
25.5 200.5 26.1
25.5 201.5 25.94
25.5 202.5 25.8
25.5 203.5 25.66
25.5 204.5 25.53
25.5 205.5 25.42
25.5 206.5 25.3
25.5 207.5 25.16
25.5 208.5 25.04
25.5 209.5 24.89
24.5 180.5 28.08
24.5 181.5 28.12
24.5 182.5 28.1
24.5 183.5 28.06
24.5 184.5 27.99
24.5 185.5 27.88
24.5 186.5 27.79
24.5 187.5 27.69
24.5 188.5 27.54
24.5 189.5 27.43
24.5 190.5 27.33
24.5 191.5 27.25
24.5 192.5 27.16
24.5 193.5 27.05
24.5 194.5 26.95
24.5 195.5 26.84
24.5 196.5 26.71
24.5 197.5 26.56
24.5 198.5 26.43
24.5 199.5 26.32
24.5 200.5 26.21
24.5 201.5 26.08
24.5 202.5 25.95
24.5 203.5 25.82
24.5 204.5 25.73
24.5 205.5 25.61
24.5 206.5 25.46
24.5 207.5 25.29
24.5 208.5 25.12
24.5 209.5 24.93
23.5 180.5 28.15
23.5 181.5 28.15
23.5 182.5 28.12
23.5 183.5 28.07
23.5 184.5 28.04
23.5 185.5 27.95
23.5 186.5 27.85
23.5 187.5 27.72
23.5 188.5 27.57
23.5 189.5 27.45
23.5 190.5 27.36
23.5 191.5 27.27
23.5 192.5 27.18
23.5 193.5 27.1
23.5 194.5 27.02
23.5 195.5 26.96
23.5 196.5 26.84
23.5 197.5 26.7
23.5 198.5 26.55
23.5 199.5 26.44
23.5 200.5 26.37
23.5 201.5 26.27
23.5 202.5 26.14
23.5 203.5 26.01
23.5 204.5 25.87
23.5 205.5 25.7
23.5 206.5 25.52
23.5 207.5 25.34
23.5 208.5 25.13
23.5 209.5 24.93
22.5 180.5 28.16
22.5 181.5 28.15
22.5 182.5 28.1
22.5 183.5 28.05
22.5 184.5 28.06
22.5 185.5 27.98
22.5 186.5 27.89
22.5 187.5 27.76
22.5 188.5 27.61
22.5 189.5 27.49
22.5 190.5 27.4
22.5 191.5 27.33
22.5 192.5 27.29
22.5 193.5 27.25
22.5 194.5 27.22
22.5 195.5 27.18
22.5 196.5 27.08
22.5 197.5 26.94
22.5 198.5 26.79
22.5 199.5 26.67
22.5 200.5 26.58
22.5 201.5 26.46
22.5 202.5 26.32
22.5 203.5 26.16
22.5 204.5 26.02
22.5 205.5 25.83
22.5 206.5 25.63
22.5 207.5 25.45
22.5 208.5 25.26
22.5 209.5 25.07
21.5 180.5 28.18
21.5 181.5 28.17
21.5 182.5 28.12
21.5 183.5 28.07
21.5 184.5 28.09
21.5 185.5 28.02
21.5 186.5 27.94
21.5 187.5 27.83
21.5 188.5 27.69
21.5 189.5 27.57
21.5 190.5 27.49
21.5 191.5 27.44
21.5 192.5 27.48
21.5 193.5 27.48
21.5 194.5 27.48
21.5 195.5 27.45
21.5 196.5 27.37
21.5 197.5 27.25
21.5 198.5 27.11
21.5 199.5 26.99
21.5 200.5 26.86
21.5 201.5 26.72
21.5 202.5 26.55
21.5 203.5 26.35
21.5 204.5 26.19
21.5 205.5 25.98
21.5 206.5 25.78
21.5 207.5 25.61
21.5 208.5 25.46
21.5 209.5 25.31
20.5 180.5 28.23
20.5 181.5 28.22
20.5 182.5 28.17
20.5 183.5 28.12
20.5 184.5 28.14
20.5 185.5 28.09
20.5 186.5 28.02
20.5 187.5 27.92
20.5 188.5 27.81
20.5 189.5 27.71
20.5 190.5 27.64
20.5 191.5 27.61
20.5 192.5 27.69
20.5 193.5 27.71
20.5 194.5 27.72
20.5 195.5 27.7
20.5 196.5 27.61
20.5 197.5 27.51
20.5 198.5 27.37
20.5 199.5 27.25
20.5 200.5 27.11
20.5 201.5 26.96
20.5 202.5 26.76
20.5 203.5 26.53
20.5 204.5 26.34
20.5 205.5 26.12
20.5 206.5 25.93
20.5 207.5 25.78
20.5 208.5 25.69
20.5 209.5 25.57
19.5 180.5 28.29
19.5 181.5 28.29
19.5 182.5 28.24
19.5 183.5 28.19
19.5 184.5 28.21
19.5 185.5 28.17
19.5 186.5 28.11
19.5 187.5 28.03
19.5 188.5 27.96
19.5 189.5 27.9
19.5 190.5 27.84
19.5 191.5 27.81
19.5 192.5 27.86
19.5 193.5 27.87
19.5 194.5 27.86
19.5 195.5 27.82
19.5 196.5 27.71
19.5 197.5 27.58
19.5 198.5 27.43
19.5 199.5 27.32
19.5 200.5 27.21
19.5 201.5 27.07
19.5 202.5 26.88
19.5 203.5 26.66
19.5 204.5 26.43
19.5 205.5 26.23
19.5 206.5 26.07
19.5 207.5 25.96
19.5 208.5 25.95
19.5 209.5 25.85
18.5 180.5 28.39
18.5 181.5 28.37
18.5 182.5 28.32
18.5 183.5 28.26
18.5 184.5 28.29
18.5 185.5 28.25
18.5 186.5 28.2
18.5 187.5 28.15
18.5 188.5 28.1
18.5 189.5 28.05
18.5 190.5 28.01
18.5 191.5 27.97
18.5 192.5 27.97
18.5 193.5 27.94
18.5 194.5 27.9
18.5 195.5 27.82
18.5 196.5 27.67
18.5 197.5 27.52
18.5 198.5 27.36
18.5 199.5 27.24
18.5 200.5 27.16
18.5 201.5 27.05
18.5 202.5 26.89
18.5 203.5 26.72
18.5 204.5 26.54
18.5 205.5 26.38
18.5 206.5 26.25
18.5 207.5 26.18
18.5 208.5 26.16
18.5 209.5 26.05
17.5 180.5 28.45
17.5 181.5 28.43
17.5 182.5 28.37
17.5 183.5 28.31
17.5 184.5 28.32
17.5 185.5 28.3
17.5 186.5 28.26
17.5 187.5 28.22
17.5 188.5 28.18
17.5 189.5 28.14
17.5 190.5 28.1
17.5 191.5 28.06
17.5 192.5 28.03
17.5 193.5 27.96
17.5 194.5 27.88
17.5 195.5 27.77
17.5 196.5 27.6
17.5 197.5 27.43
17.5 198.5 27.26
17.5 199.5 27.13
17.5 200.5 27.07
17.5 201.5 26.98
17.5 202.5 26.87
17.5 203.5 26.76
17.5 204.5 26.65
17.5 205.5 26.55
17.5 206.5 26.47
17.5 207.5 26.43
17.5 208.5 26.36
17.5 209.5 26.25
16.5 180.5 28.49
16.5 181.5 28.47
16.5 182.5 28.41
16.5 183.5 28.36
16.5 184.5 28.35
16.5 185.5 28.33
16.5 186.5 28.3
16.5 187.5 28.27
16.5 188.5 28.22
16.5 189.5 28.17
16.5 190.5 28.13
16.5 191.5 28.09
16.5 192.5 28.04
16.5 193.5 27.97
16.5 194.5 27.87
16.5 195.5 27.76
16.5 196.5 27.58
16.5 197.5 27.41
16.5 198.5 27.24
16.5 199.5 27.11
16.5 200.5 27.04
16.5 201.5 26.97
16.5 202.5 26.9
16.5 203.5 26.84
16.5 204.5 26.8
16.5 205.5 26.75
16.5 206.5 26.71
16.5 207.5 26.71
16.5 208.5 26.62
16.5 209.5 26.52
15.5 180.5 28.55
15.5 181.5 28.53
15.5 182.5 28.47
15.5 183.5 28.42
15.5 184.5 28.37
15.5 185.5 28.34
15.5 186.5 28.3
15.5 187.5 28.26
15.5 188.5 28.22
15.5 189.5 28.17
15.5 190.5 28.12
15.5 191.5 28.08
15.5 192.5 28.05
15.5 193.5 27.99
15.5 194.5 27.91
15.5 195.5 27.82
15.5 196.5 27.65
15.5 197.5 27.49
15.5 198.5 27.32
15.5 199.5 27.18
15.5 200.5 27.11
15.5 201.5 27.06
15.5 202.5 27.02
15.5 203.5 27.01
15.5 204.5 27.03
15.5 205.5 27
15.5 206.5 26.99
15.5 207.5 27
15.5 208.5 26.98
15.5 209.5 26.88
14.5 180.5 28.63
14.5 181.5 28.62
14.5 182.5 28.59
14.5 183.5 28.55
14.5 184.5 28.5
14.5 185.5 28.46
14.5 186.5 28.4
14.5 187.5 28.34
14.5 188.5 28.27
14.5 189.5 28.21
14.5 190.5 28.15
14.5 191.5 28.11
14.5 192.5 28.1
14.5 193.5 28.05
14.5 194.5 27.97
14.5 195.5 27.89
14.5 196.5 27.75
14.5 197.5 27.63
14.5 198.5 27.48
14.5 199.5 27.35
14.5 200.5 27.31
14.5 201.5 27.27
14.5 202.5 27.24
14.5 203.5 27.23
14.5 204.5 27.27
14.5 205.5 27.22
14.5 206.5 27.2
14.5 207.5 27.22
14.5 208.5 27.23
14.5 209.5 27.19
13.5 180.5 28.73
13.5 181.5 28.74
13.5 182.5 28.73
13.5 183.5 28.71
13.5 184.5 28.67
13.5 185.5 28.62
13.5 186.5 28.55
13.5 187.5 28.47
13.5 188.5 28.39
13.5 189.5 28.32
13.5 190.5 28.26
13.5 191.5 28.21
13.5 192.5 28.21
13.5 193.5 28.14
13.5 194.5 28.06
13.5 195.5 27.99
13.5 196.5 27.9
13.5 197.5 27.79
13.5 198.5 27.66
13.5 199.5 27.55
13.5 200.5 27.55
13.5 201.5 27.53
13.5 202.5 27.51
13.5 203.5 27.49
13.5 204.5 27.51
13.5 205.5 27.45
13.5 206.5 27.41
13.5 207.5 27.42
13.5 208.5 27.44
13.5 209.5 27.45
12.5 180.5 28.85
12.5 181.5 28.89
12.5 182.5 28.9
12.5 183.5 28.89
12.5 184.5 28.87
12.5 185.5 28.8
12.5 186.5 28.72
12.5 187.5 28.64
12.5 188.5 28.54
12.5 189.5 28.48
12.5 190.5 28.43
12.5 191.5 28.39
12.5 192.5 28.34
12.5 193.5 28.27
12.5 194.5 28.19
12.5 195.5 28.11
12.5 196.5 28.06
12.5 197.5 27.96
12.5 198.5 27.84
12.5 199.5 27.74
12.5 200.5 27.79
12.5 201.5 27.78
12.5 202.5 27.78
12.5 203.5 27.77
12.5 204.5 27.78
12.5 205.5 27.71
12.5 206.5 27.66
12.5 207.5 27.66
12.5 208.5 27.63
12.5 209.5 27.67
11.5 180.5 28.91
11.5 181.5 28.98
11.5 182.5 29.02
11.5 183.5 29.04
11.5 184.5 29.08
11.5 185.5 29
11.5 186.5 28.91
11.5 187.5 28.83
11.5 188.5 28.73
11.5 189.5 28.68
11.5 190.5 28.64
11.5 191.5 28.59
11.5 192.5 28.49
11.5 193.5 28.4
11.5 194.5 28.31
11.5 195.5 28.2
11.5 196.5 28.14
11.5 197.5 28.04
11.5 198.5 27.94
11.5 199.5 27.89
11.5 200.5 28.02
11.5 201.5 28.05
11.5 202.5 28.07
11.5 203.5 28.09
11.5 204.5 28.08
11.5 205.5 28.01
11.5 206.5 27.96
11.5 207.5 27.92
11.5 208.5 27.84
11.5 209.5 27.84
10.5 180.5 29.07
10.5 181.5 29.14
10.5 182.5 29.19
10.5 183.5 29.22
10.5 184.5 29.27
10.5 185.5 29.2
10.5 186.5 29.13
10.5 187.5 29.06
10.5 188.5 28.97
10.5 189.5 28.95
10.5 190.5 28.93
10.5 191.5 28.88
10.5 192.5 28.73
10.5 193.5 28.63
10.5 194.5 28.53
10.5 195.5 28.42
10.5 196.5 28.4
10.5 197.5 28.3
10.5 198.5 28.22
10.5 199.5 28.21
10.5 200.5 28.38
10.5 201.5 28.43
10.5 202.5 28.46
10.5 203.5 28.48
10.5 204.5 28.45
10.5 205.5 28.38
10.5 206.5 28.31
10.5 207.5 28.24
10.5 208.5 28.12
10.5 209.5 28.09
