39.5 180.5 14.34
39.5 181.5 14.29
39.5 182.5 14.18
39.5 183.5 14.03
39.5 184.5 13.64
39.5 185.5 13.56
39.5 186.5 13.49
39.5 187.5 13.34
39.5 188.5 13.11
39.5 189.5 13.05
39.5 190.5 13.04
39.5 191.5 12.94
39.5 192.5 12.79
39.5 193.5 12.75
39.5 194.5 12.83
39.5 195.5 12.94
39.5 196.5 12.58
39.5 197.5 12.42
39.5 198.5 12.25
39.5 199.5 12.1
39.5 200.5 11.66
39.5 201.5 11.67
39.5 202.5 11.76
39.5 203.5 11.93
39.5 204.5 11.96
39.5 205.5 12.02
39.5 206.5 12.03
39.5 207.5 12.13
39.5 208.5 12.21
39.5 209.5 12.35
38.5 180.5 15.59
38.5 181.5 15.5
38.5 182.5 15.31
38.5 183.5 15.07
38.5 184.5 14.61
38.5 185.5 14.46
38.5 186.5 14.32
38.5 187.5 14.08
38.5 188.5 13.77
38.5 189.5 13.71
38.5 190.5 13.75
38.5 191.5 13.7
38.5 192.5 13.61
38.5 193.5 13.58
38.5 194.5 13.68
38.5 195.5 13.81
38.5 196.5 13.6
38.5 197.5 13.45
38.5 198.5 13.28
38.5 199.5 13.14
38.5 200.5 12.64
38.5 201.5 12.67
38.5 202.5 12.77
38.5 203.5 12.95
38.5 204.5 13.03
38.5 205.5 13.08
38.5 206.5 13.07
38.5 207.5 13.16
38.5 208.5 13.22
38.5 209.5 13.32
37.5 180.5 16.48
37.5 181.5 16.3
37.5 182.5 16.03
37.5 183.5 15.71
37.5 184.5 15.27
37.5 185.5 15.06
37.5 186.5 14.87
37.5 187.5 14.62
37.5 188.5 14.31
37.5 189.5 14.29
37.5 190.5 14.38
37.5 191.5 14.41
37.5 192.5 14.4
37.5 193.5 14.38
37.5 194.5 14.47
37.5 195.5 14.6
37.5 196.5 14.52
37.5 197.5 14.42
37.5 198.5 14.29
37.5 199.5 14.18
37.5 200.5 13.68
37.5 201.5 13.71
37.5 202.5 13.79
37.5 203.5 13.95
37.5 204.5 14.05
37.5 205.5 14.1
37.5 206.5 14.09
37.5 207.5 14.17
37.5 208.5 14.24
37.5 209.5 14.28
36.5 180.5 17.16
36.5 181.5 16.87
36.5 182.5 16.55
36.5 183.5 16.19
36.5 184.5 15.83
36.5 185.5 15.56
36.5 186.5 15.32
36.5 187.5 15.08
36.5 188.5 14.83
36.5 189.5 14.85
36.5 190.5 14.99
36.5 191.5 15.09
36.5 192.5 15.17
36.5 193.5 15.19
36.5 194.5 15.27
36.5 195.5 15.38
36.5 196.5 15.42
36.5 197.5 15.36
36.5 198.5 15.29
36.5 199.5 15.23
36.5 200.5 14.79
36.5 201.5 14.81
36.5 202.5 14.86
36.5 203.5 14.97
36.5 204.5 15.02
36.5 205.5 15.05
36.5 206.5 15.04
36.5 207.5 15.12
36.5 208.5 15.22
36.5 209.5 15.21
35.5 180.5 17.84
35.5 181.5 17.55
35.5 182.5 17.28
35.5 183.5 16.95
35.5 184.5 16.58
35.5 185.5 16.2
35.5 186.5 15.88
35.5 187.5 15.64
35.5 188.5 15.54
35.5 189.5 15.52
35.5 190.5 15.58
35.5 191.5 15.67
35.5 192.5 15.9
35.5 193.5 15.97
35.5 194.5 16.03
35.5 195.5 16.15
35.5 196.5 16.34
35.5 197.5 16.38
35.5 198.5 16.41
35.5 199.5 16.43
35.5 200.5 16.13
35.5 201.5 16.15
35.5 202.5 16.15
35.5 203.5 16.13
35.5 204.5 16.03
35.5 205.5 15.93
35.5 206.5 15.86
35.5 207.5 15.89
35.5 208.5 16.01
35.5 209.5 15.98
34.5 180.5 18.64
34.5 181.5 18.41
34.5 182.5 18.21
34.5 183.5 17.96
34.5 184.5 17.73
34.5 185.5 17.33
34.5 186.5 16.97
34.5 187.5 16.74
34.5 188.5 16.65
34.5 189.5 16.63
34.5 190.5 16.64
34.5 191.5 16.75
34.5 192.5 16.95
34.5 193.5 17.06
34.5 194.5 17.12
34.5 195.5 17.22
34.5 196.5 17.34
34.5 197.5 17.37
34.5 198.5 17.39
34.5 199.5 17.37
34.5 200.5 17.24
34.5 201.5 17.25
34.5 202.5 17.25
34.5 203.5 17.22
34.5 204.5 17.12
34.5 205.5 16.99
34.5 206.5 16.91
34.5 207.5 16.9
34.5 208.5 17
34.5 209.5 16.92
33.5 180.5 19.4
33.5 181.5 19.24
33.5 182.5 19.13
33.5 183.5 18.98
33.5 184.5 18.91
33.5 185.5 18.56
33.5 186.5 18.21
33.5 187.5 18.02
33.5 188.5 18
33.5 189.5 17.99
33.5 190.5 17.98
33.5 191.5 18.07
33.5 192.5 18.17
33.5 193.5 18.3
33.5 194.5 18.37
33.5 195.5 18.43
33.5 196.5 18.37
33.5 197.5 18.34
33.5 198.5 18.31
33.5 199.5 18.24
33.5 200.5 18.17
33.5 201.5 18.19
33.5 202.5 18.23
33.5 203.5 18.23
33.5 204.5 18.23
33.5 205.5 18.1
33.5 206.5 18
33.5 207.5 17.95
33.5 208.5 18
33.5 209.5 17.88
32.5 180.5 20.21
32.5 181.5 20.09
32.5 182.5 20.03
32.5 183.5 19.96
32.5 184.5 19.98
32.5 185.5 19.69
32.5 186.5 19.35
32.5 187.5 19.22
32.5 188.5 19.37
32.5 189.5 19.4
32.5 190.5 19.38
32.5 191.5 19.44
32.5 192.5 19.47
32.5 193.5 19.59
32.5 194.5 19.65
32.5 195.5 19.66
32.5 196.5 19.35
32.5 197.5 19.25
32.5 198.5 19.18
32.5 199.5 19.08
32.5 200.5 19.01
32.5 201.5 19.06
32.5 202.5 19.13
32.5 203.5 19.17
32.5 204.5 19.29
32.5 205.5 19.17
32.5 206.5 19.04
32.5 207.5 18.94
32.5 208.5 18.95
32.5 209.5 18.77
31.5 180.5 21.12
31.5 181.5 21
31.5 182.5 21.02
31.5 183.5 21.02
31.5 184.5 20.99
31.5 185.5 20.7
31.5 186.5 20.33
31.5 187.5 20.19
31.5 188.5 20.51
31.5 189.5 20.52
31.5 190.5 20.47
31.5 191.5 20.49
31.5 192.5 20.55
31.5 193.5 20.72
31.5 194.5 20.82
31.5 195.5 20.82
31.5 196.5 20.31
31.5 197.5 20.15
31.5 198.5 20.07
31.5 199.5 19.98
31.5 200.5 19.87
31.5 201.5 19.95
31.5 202.5 20.02
31.5 203.5 20.07
31.5 204.5 20.28
31.5 205.5 20.14
31.5 206.5 20
31.5 207.5 19.88
31.5 208.5 19.84
31.5 209.5 19.65
30.5 180.5 21.98
30.5 181.5 21.84
30.5 182.5 21.87
30.5 183.5 21.91
30.5 184.5 21.85
30.5 185.5 21.6
30.5 186.5 21.26
30.5 187.5 21.15
30.5 188.5 21.45
30.5 189.5 21.5
30.5 190.5 21.46
30.5 191.5 21.47
30.5 192.5 21.51
30.5 193.5 21.64
30.5 194.5 21.72
30.5 195.5 21.68
30.5 196.5 21.11
30.5 197.5 20.98
30.5 198.5 20.97
30.5 199.5 20.94
30.5 200.5 20.85
30.5 201.5 20.94
30.5 202.5 20.99
30.5 203.5 20.99
30.5 204.5 21.19
30.5 205.5 21.04
30.5 206.5 20.91
30.5 207.5 20.82
30.5 208.5 20.82
30.5 209.5 20.66
29.5 180.5 22.77
29.5 181.5 22.63
29.5 182.5 22.66
29.5 183.5 22.73
29.5 184.5 22.7
29.5 185.5 22.53
29.5 186.5 22.27
29.5 187.5 22.18
29.5 188.5 22.33
29.5 189.5 22.35
29.5 190.5 22.31
29.5 191.5 22.29
29.5 192.5 22.3
29.5 193.5 22.36
29.5 194.5 22.38
29.5 195.5 22.31
29.5 196.5 21.85
29.5 197.5 21.79
29.5 198.5 21.84
29.5 199.5 21.88
29.5 200.5 21.85
29.5 201.5 21.94
29.5 202.5 21.97
29.5 203.5 21.91
29.5 204.5 22.01
29.5 205.5 21.85
29.5 206.5 21.74
29.5 207.5 21.69
29.5 208.5 21.74
29.5 209.5 21.63
28.5 180.5 23.42
28.5 181.5 23.3
28.5 182.5 23.34
28.5 183.5 23.47
28.5 184.5 23.52
28.5 185.5 23.45
28.5 186.5 23.28
28.5 187.5 23.18
28.5 188.5 23.12
28.5 189.5 23.07
28.5 190.5 22.99
28.5 191.5 22.95
28.5 192.5 22.93
28.5 193.5 22.93
28.5 194.5 22.9
28.5 195.5 22.81
28.5 196.5 22.54
28.5 197.5 22.56
28.5 198.5 22.65
28.5 199.5 22.75
28.5 200.5 22.82
28.5 201.5 22.88
28.5 202.5 22.87
28.5 203.5 22.76
28.5 204.5 22.7
28.5 205.5 22.54
28.5 206.5 22.45
28.5 207.5 22.42
28.5 208.5 22.49
28.5 209.5 22.41
27.5 180.5 23.92
27.5 181.5 23.82
27.5 182.5 23.85
27.5 183.5 24.01
27.5 184.5 24.2
27.5 185.5 24.19
27.5 186.5 24.04
27.5 187.5 23.86
27.5 188.5 23.7
27.5 189.5 23.55
27.5 190.5 23.41
27.5 191.5 23.36
27.5 192.5 23.41
27.5 193.5 23.44
27.5 194.5 23.43
27.5 195.5 23.37
27.5 196.5 23.29
27.5 197.5 23.34
27.5 198.5 23.45
27.5 199.5 23.56
27.5 200.5 23.64
27.5 201.5 23.65
27.5 202.5 23.6
27.5 203.5 23.47
27.5 204.5 23.25
27.5 205.5 23.11
27.5 206.5 23.04
27.5 207.5 23.02
27.5 208.5 23
27.5 209.5 22.93
26.5 180.5 24.43
26.5 181.5 24.36
26.5 182.5 24.34
26.5 183.5 24.43
26.5 184.5 24.62
26.5 185.5 24.65
26.5 186.5 24.56
26.5 187.5 24.39
26.5 188.5 24.18
26.5 189.5 23.94
26.5 190.5 23.76
26.5 191.5 23.72
26.5 192.5 23.9
26.5 193.5 23.99
26.5 194.5 24.01
26.5 195.5 23.98
26.5 196.5 23.99
26.5 197.5 24.01
26.5 198.5 24.06
26.5 199.5 24.12
26.5 200.5 24.16
26.5 201.5 24.16
26.5 202.5 24.12
26.5 203.5 23.99
26.5 204.5 23.71
26.5 205.5 23.6
26.5 206.5 23.54
26.5 207.5 23.49
26.5 208.5 23.4
26.5 209.5 23.3
25.5 180.5 24.97
25.5 181.5 24.93
25.5 182.5 24.86
25.5 183.5 24.84
25.5 184.5 24.93
25.5 185.5 24.97
25.5 186.5 24.92
25.5 187.5 24.78
25.5 188.5 24.57
25.5 189.5 24.27
25.5 190.5 24.06
25.5 191.5 24.04
25.5 192.5 24.31
25.5 193.5 24.45
25.5 194.5 24.5
25.5 195.5 24.48
25.5 196.5 24.53
25.5 197.5 24.53
25.5 198.5 24.52
25.5 199.5 24.53
25.5 200.5 24.56
25.5 201.5 24.55
25.5 202.5 24.52
25.5 203.5 24.4
25.5 204.5 24.14
25.5 205.5 24.03
25.5 206.5 23.97
25.5 207.5 23.89
25.5 208.5 23.72
25.5 209.5 23.58
24.5 180.5 25.47
24.5 181.5 25.44
24.5 182.5 25.32
24.5 183.5 25.21
24.5 184.5 25.23
24.5 185.5 25.23
24.5 186.5 25.19
24.5 187.5 25.08
24.5 188.5 24.94
24.5 189.5 24.66
24.5 190.5 24.45
24.5 191.5 24.44
24.5 192.5 24.66
24.5 193.5 24.8
24.5 194.5 24.86
24.5 195.5 24.84
24.5 196.5 24.89
24.5 197.5 24.87
24.5 198.5 24.84
24.5 199.5 24.85
24.5 200.5 24.9
24.5 201.5 24.86
24.5 202.5 24.81
24.5 203.5 24.68
24.5 204.5 24.47
24.5 205.5 24.36
24.5 206.5 24.29
24.5 207.5 24.18
24.5 208.5 24
24.5 209.5 23.84
23.5 180.5 25.88
23.5 181.5 25.84
23.5 182.5 25.7
23.5 183.5 25.56
23.5 184.5 25.53
23.5 185.5 25.47
23.5 186.5 25.38
23.5 187.5 25.31
23.5 188.5 25.3
23.5 189.5 25.11
23.5 190.5 24.93
23.5 191.5 24.88
23.5 192.5 24.93
23.5 193.5 25.03
23.5 194.5 25.1
23.5 195.5 25.09
23.5 196.5 25.1
23.5 197.5 25.08
23.5 198.5 25.08
23.5 199.5 25.11
23.5 200.5 25.2
23.5 201.5 25.13
23.5 202.5 25.03
23.5 203.5 24.87
23.5 204.5 24.65
23.5 205.5 24.52
23.5 206.5 24.43
23.5 207.5 24.31
23.5 208.5 24.15
23.5 209.5 24.02
22.5 180.5 26.01
22.5 181.5 25.96
22.5 182.5 25.85
22.5 183.5 25.72
22.5 184.5 25.68
22.5 185.5 25.63
22.5 186.5 25.56
22.5 187.5 25.55
22.5 188.5 25.63
22.5 189.5 25.52
22.5 190.5 25.4
22.5 191.5 25.35
22.5 192.5 25.3
22.5 193.5 25.33
22.5 194.5 25.33
22.5 195.5 25.28
22.5 196.5 25.27
22.5 197.5 25.28
22.5 198.5 25.33
22.5 199.5 25.42
22.5 200.5 25.54
22.5 201.5 25.43
22.5 202.5 25.26
22.5 203.5 25.03
22.5 204.5 24.75
22.5 205.5 24.58
22.5 206.5 24.47
22.5 207.5 24.36
22.5 208.5 24.26
22.5 209.5 24.16
21.5 180.5 26.14
21.5 181.5 26.09
21.5 182.5 25.99
21.5 183.5 25.86
21.5 184.5 25.8
21.5 185.5 25.76
21.5 186.5 25.75
21.5 187.5 25.78
21.5 188.5 25.87
21.5 189.5 25.81
21.5 190.5 25.73
21.5 191.5 25.71
21.5 192.5 25.67
21.5 193.5 25.65
21.5 194.5 25.6
21.5 195.5 25.51
21.5 196.5 25.51
21.5 197.5 25.53
21.5 198.5 25.61
21.5 199.5 25.72
21.5 200.5 25.82
21.5 201.5 25.69
21.5 202.5 25.48
21.5 203.5 25.19
21.5 204.5 24.87
21.5 205.5 24.67
21.5 206.5 24.55
21.5 207.5 24.46
21.5 208.5 24.42
21.5 209.5 24.34
20.5 180.5 26.36
20.5 181.5 26.3
20.5 182.5 26.22
20.5 183.5 26.09
20.5 184.5 26
20.5 185.5 25.97
20.5 186.5 25.98
20.5 187.5 26.04
20.5 188.5 26.09
20.5 189.5 26.06
20.5 190.5 26.01
20.5 191.5 26.01
20.5 192.5 26.01
20.5 193.5 25.99
20.5 194.5 25.92
20.5 195.5 25.83
20.5 196.5 25.82
20.5 197.5 25.82
20.5 198.5 25.86
20.5 199.5 25.92
20.5 200.5 25.97
20.5 201.5 25.82
20.5 202.5 25.59
20.5 203.5 25.31
20.5 204.5 25.04
20.5 205.5 24.85
20.5 206.5 24.72
20.5 207.5 24.65
20.5 208.5 24.64
20.5 209.5 24.58
19.5 180.5 26.67
19.5 181.5 26.58
19.5 182.5 26.49
19.5 183.5 26.37
19.5 184.5 26.29
19.5 185.5 26.25
19.5 186.5 26.25
19.5 187.5 26.29
19.5 188.5 26.31
19.5 189.5 26.29
19.5 190.5 26.27
19.5 191.5 26.26
19.5 192.5 26.25
19.5 193.5 26.24
19.5 194.5 26.2
19.5 195.5 26.13
19.5 196.5 26.1
19.5 197.5 26.03
19.5 198.5 25.98
19.5 199.5 25.94
19.5 200.5 25.92
19.5 201.5 25.75
19.5 202.5 25.54
19.5 203.5 25.32
19.5 204.5 25.18
19.5 205.5 25.02
19.5 206.5 24.9
19.5 207.5 24.82
19.5 208.5 24.79
19.5 209.5 24.74
18.5 180.5 26.89
18.5 181.5 26.78
18.5 182.5 26.66
18.5 183.5 26.54
18.5 184.5 26.49
18.5 185.5 26.47
18.5 186.5 26.49
18.5 187.5 26.55
18.5 188.5 26.57
18.5 189.5 26.55
18.5 190.5 26.52
18.5 191.5 26.46
18.5 192.5 26.36
18.5 193.5 26.32
18.5 194.5 26.27
18.5 195.5 26.19
18.5 196.5 26.1
18.5 197.5 25.96
18.5 198.5 25.83
18.5 199.5 25.72
18.5 200.5 25.66
18.5 201.5 25.54
18.5 202.5 25.39
18.5 203.5 25.28
18.5 204.5 25.22
18.5 205.5 25.11
18.5 206.5 25.01
18.5 207.5 24.92
18.5 208.5 24.86
18.5 209.5 24.81
17.5 180.5 27.01
17.5 181.5 26.91
17.5 182.5 26.8
17.5 183.5 26.69
17.5 184.5 26.64
17.5 185.5 26.64
17.5 186.5 26.68
17.5 187.5 26.75
17.5 188.5 26.77
17.5 189.5 26.74
17.5 190.5 26.67
17.5 191.5 26.57
17.5 192.5 26.39
17.5 193.5 26.31
17.5 194.5 26.25
17.5 195.5 26.16
17.5 196.5 26.03
17.5 197.5 25.85
17.5 198.5 25.67
17.5 199.5 25.51
17.5 200.5 25.44
17.5 201.5 25.36
17.5 202.5 25.3
17.5 203.5 25.27
17.5 204.5 25.25
17.5 205.5 25.17
17.5 206.5 25.08
17.5 207.5 24.99
17.5 208.5 24.91
17.5 209.5 24.87
16.5 180.5 27.11
16.5 181.5 27.03
16.5 182.5 26.94
16.5 183.5 26.86
16.5 184.5 26.83
16.5 185.5 26.84
16.5 186.5 26.87
16.5 187.5 26.92
16.5 188.5 26.92
16.5 189.5 26.86
16.5 190.5 26.77
16.5 191.5 26.63
16.5 192.5 26.42
16.5 193.5 26.31
16.5 194.5 26.24
16.5 195.5 26.16
16.5 196.5 26.02
16.5 197.5 25.85
16.5 198.5 25.67
16.5 199.5 25.5
16.5 200.5 25.42
16.5 201.5 25.37
16.5 202.5 25.36
16.5 203.5 25.36
16.5 204.5 25.35
16.5 205.5 25.26
16.5 206.5 25.18
16.5 207.5 25.11
16.5 208.5 25.04
16.5 209.5 25.01
15.5 180.5 27.21
15.5 181.5 27.16
15.5 182.5 27.1
15.5 183.5 27.06
15.5 184.5 27.09
15.5 185.5 27.08
15.5 186.5 27.08
15.5 187.5 27.08
15.5 188.5 27.06
15.5 189.5 26.98
15.5 190.5 26.88
15.5 191.5 26.74
15.5 192.5 26.54
15.5 193.5 26.42
15.5 194.5 26.33
15.5 195.5 26.25
15.5 196.5 26.09
15.5 197.5 25.96
15.5 198.5 25.82
15.5 199.5 25.67
15.5 200.5 25.59
15.5 201.5 25.55
15.5 202.5 25.54
15.5 203.5 25.53
15.5 204.5 25.55
15.5 205.5 25.47
15.5 206.5 25.39
15.5 207.5 25.34
15.5 208.5 25.29
15.5 209.5 25.27
14.5 180.5 27.31
14.5 181.5 27.29
14.5 182.5 27.26
14.5 183.5 27.24
14.5 184.5 27.31
14.5 185.5 27.29
14.5 186.5 27.26
14.5 187.5 27.22
14.5 188.5 27.18
14.5 189.5 27.09
14.5 190.5 26.97
14.5 191.5 26.84
14.5 192.5 26.66
14.5 193.5 26.55
14.5 194.5 26.45
14.5 195.5 26.38
14.5 196.5 26.22
14.5 197.5 26.12
14.5 198.5 26.01
14.5 199.5 25.9
14.5 200.5 25.82
14.5 201.5 25.79
14.5 202.5 25.78
14.5 203.5 25.77
14.5 204.5 25.79
14.5 205.5 25.72
14.5 206.5 25.69
14.5 207.5 25.69
14.5 208.5 25.69
14.5 209.5 25.68
13.5 180.5 27.42
13.5 181.5 27.4
13.5 182.5 27.38
13.5 183.5 27.38
13.5 184.5 27.46
13.5 185.5 27.41
13.5 186.5 27.35
13.5 187.5 27.29
13.5 188.5 27.23
13.5 189.5 27.12
13.5 190.5 27.01
13.5 191.5 26.89
13.5 192.5 26.74
13.5 193.5 26.65
13.5 194.5 26.58
13.5 195.5 26.52
13.5 196.5 26.38
13.5 197.5 26.3
13.5 198.5 26.23
13.5 199.5 26.15
13.5 200.5 26.08
13.5 201.5 26.07
13.5 202.5 26.07
13.5 203.5 26.06
13.5 204.5 26.05
13.5 205.5 26.01
13.5 206.5 26.02
13.5 207.5 26.06
13.5 208.5 26.12
13.5 209.5 26.1
12.5 180.5 27.54
12.5 181.5 27.51
12.5 182.5 27.49
12.5 183.5 27.48
12.5 184.5 27.54
12.5 185.5 27.48
12.5 186.5 27.39
12.5 187.5 27.31
12.5 188.5 27.24
12.5 189.5 27.14
12.5 190.5 27.04
12.5 191.5 26.94
12.5 192.5 26.85
12.5 193.5 26.79
12.5 194.5 26.74
12.5 195.5 26.7
12.5 196.5 26.63
12.5 197.5 26.56
12.5 198.5 26.51
12.5 199.5 26.46
12.5 200.5 26.42
12.5 201.5 26.42
12.5 202.5 26.42
12.5 203.5 26.4
12.5 204.5 26.36
12.5 205.5 26.34
12.5 206.5 26.36
12.5 207.5 26.41
12.5 208.5 26.49
12.5 209.5 26.45
11.5 180.5 27.71
11.5 181.5 27.67
11.5 182.5 27.64
11.5 183.5 27.63
11.5 184.5 27.65
11.5 185.5 27.57
11.5 186.5 27.48
11.5 187.5 27.41
11.5 188.5 27.33
11.5 189.5 27.25
11.5 190.5 27.17
11.5 191.5 27.1
11.5 192.5 27.08
11.5 193.5 27.03
11.5 194.5 27
11.5 195.5 26.97
11.5 196.5 26.97
11.5 197.5 26.92
11.5 198.5 26.9
11.5 199.5 26.88
11.5 200.5 26.88
11.5 201.5 26.87
11.5 202.5 26.83
11.5 203.5 26.76
11.5 204.5 26.71
11.5 205.5 26.68
11.5 206.5 26.71
11.5 207.5 26.75
11.5 208.5 26.79
11.5 209.5 26.74
10.5 180.5 27.86
10.5 181.5 27.82
10.5 182.5 27.79
10.5 183.5 27.77
10.5 184.5 27.77
10.5 185.5 27.7
10.5 186.5 27.61
10.5 187.5 27.55
10.5 188.5 27.51
10.5 189.5 27.45
10.5 190.5 27.4
10.5 191.5 27.35
10.5 192.5 27.38
10.5 193.5 27.36
10.5 194.5 27.35
10.5 195.5 27.34
10.5 196.5 27.38
10.5 197.5 27.34
10.5 198.5 27.33
10.5 199.5 27.33
10.5 200.5 27.31
10.5 201.5 27.29
10.5 202.5 27.24
10.5 203.5 27.14
10.5 204.5 27.03
10.5 205.5 26.98
10.5 206.5 26.99
10.5 207.5 27.01
10.5 208.5 27
10.5 209.5 26.96
