39.5 180.5 10.91
39.5 181.5 10.84
39.5 182.5 10.75
39.5 183.5 10.79
39.5 184.5 11.26
39.5 185.5 11.13
39.5 186.5 10.74
39.5 187.5 10.45
39.5 188.5 10.62
39.5 189.5 10.49
39.5 190.5 10.25
39.5 191.5 10.07
39.5 192.5 10.14
39.5 193.5 10.19
39.5 194.5 10.22
39.5 195.5 10.16
39.5 196.5 9.9
39.5 197.5 9.68
39.5 198.5 9.55
39.5 199.5 9.5
39.5 200.5 9.63
39.5 201.5 9.66
39.5 202.5 9.69
39.5 203.5 9.77
39.5 204.5 10.04
39.5 205.5 10.01
39.5 206.5 9.93
39.5 207.5 9.97
39.5 208.5 10.31
39.5 209.5 10.55
38.5 180.5 12.14
38.5 181.5 12.09
38.5 182.5 12.07
38.5 183.5 12.15
38.5 184.5 12.45
38.5 185.5 12.29
38.5 186.5 11.87
38.5 187.5 11.57
38.5 188.5 11.74
38.5 189.5 11.58
38.5 190.5 11.28
38.5 191.5 11.03
38.5 192.5 11.05
38.5 193.5 11.08
38.5 194.5 11.11
38.5 195.5 11.03
38.5 196.5 10.69
38.5 197.5 10.46
38.5 198.5 10.32
38.5 199.5 10.28
38.5 200.5 10.43
38.5 201.5 10.46
38.5 202.5 10.45
38.5 203.5 10.5
38.5 204.5 10.8
38.5 205.5 10.8
38.5 206.5 10.76
38.5 207.5 10.81
38.5 208.5 11.09
38.5 209.5 11.28
37.5 180.5 13.24
37.5 181.5 13.14
37.5 182.5 13.17
37.5 183.5 13.26
37.5 184.5 13.33
37.5 185.5 13.14
37.5 186.5 12.74
37.5 187.5 12.45
37.5 188.5 12.55
37.5 189.5 12.33
37.5 190.5 11.96
37.5 191.5 11.64
37.5 192.5 11.64
37.5 193.5 11.67
37.5 194.5 11.7
37.5 195.5 11.64
37.5 196.5 11.35
37.5 197.5 11.16
37.5 198.5 11.04
37.5 199.5 11.03
37.5 200.5 11.17
37.5 201.5 11.18
37.5 202.5 11.14
37.5 203.5 11.16
37.5 204.5 11.46
37.5 205.5 11.51
37.5 206.5 11.53
37.5 207.5 11.62
37.5 208.5 11.87
37.5 209.5 12.04
36.5 180.5 14.11
36.5 181.5 13.92
36.5 182.5 13.96
36.5 183.5 14.03
36.5 184.5 13.9
36.5 185.5 13.68
36.5 186.5 13.32
36.5 187.5 13.06
36.5 188.5 13.09
36.5 189.5 12.81
36.5 190.5 12.37
36.5 191.5 12.01
36.5 192.5 12.01
36.5 193.5 12.04
36.5 194.5 12.09
36.5 195.5 12.09
36.5 196.5 11.93
36.5 197.5 11.79
36.5 198.5 11.72
36.5 199.5 11.73
36.5 200.5 11.85
36.5 201.5 11.86
36.5 202.5 11.82
36.5 203.5 11.83
36.5 204.5 12.11
36.5 205.5 12.2
36.5 206.5 12.26
36.5 207.5 12.38
36.5 208.5 12.64
36.5 209.5 12.81
35.5 180.5 14.61
35.5 181.5 14.33
35.5 182.5 14.38
35.5 183.5 14.42
35.5 184.5 14.19
35.5 185.5 14
35.5 186.5 13.73
35.5 187.5 13.55
35.5 188.5 13.47
35.5 189.5 13.19
35.5 190.5 12.78
35.5 191.5 12.44
35.5 192.5 12.41
35.5 193.5 12.45
35.5 194.5 12.53
35.5 195.5 12.57
35.5 196.5 12.54
35.5 197.5 12.46
35.5 198.5 12.45
35.5 199.5 12.49
35.5 200.5 12.57
35.5 201.5 12.61
35.5 202.5 12.61
35.5 203.5 12.67
35.5 204.5 12.95
35.5 205.5 13.02
35.5 206.5 13.06
35.5 207.5 13.17
35.5 208.5 13.5
35.5 209.5 13.65
34.5 180.5 14.98
34.5 181.5 14.73
34.5 182.5 14.77
34.5 183.5 14.76
34.5 184.5 14.47
34.5 185.5 14.26
34.5 186.5 14.05
34.5 187.5 13.92
34.5 188.5 13.87
34.5 189.5 13.65
34.5 190.5 13.32
34.5 191.5 13.06
34.5 192.5 13.04
34.5 193.5 13.12
34.5 194.5 13.23
34.5 195.5 13.29
34.5 196.5 13.27
34.5 197.5 13.23
34.5 198.5 13.24
34.5 199.5 13.32
34.5 200.5 13.43
34.5 201.5 13.5
34.5 202.5 13.52
34.5 203.5 13.61
34.5 204.5 13.86
34.5 205.5 13.96
34.5 206.5 14
34.5 207.5 14.1
34.5 208.5 14.44
34.5 209.5 14.58
33.5 180.5 15.41
33.5 181.5 15.26
33.5 182.5 15.32
33.5 183.5 15.28
33.5 184.5 14.96
33.5 185.5 14.76
33.5 186.5 14.59
33.5 187.5 14.48
33.5 188.5 14.41
33.5 189.5 14.25
33.5 190.5 14.02
33.5 191.5 13.88
33.5 192.5 13.86
33.5 193.5 13.97
33.5 194.5 14.12
33.5 195.5 14.2
33.5 196.5 14.13
33.5 197.5 14.11
33.5 198.5 14.14
33.5 199.5 14.2
33.5 200.5 14.33
33.5 201.5 14.38
33.5 202.5 14.41
33.5 203.5 14.52
33.5 204.5 14.75
33.5 205.5 14.87
33.5 206.5 14.91
33.5 207.5 15.01
33.5 208.5 15.29
33.5 209.5 15.41
32.5 180.5 16.03
32.5 181.5 16.01
32.5 182.5 16.1
32.5 183.5 16.07
32.5 184.5 15.75
32.5 185.5 15.57
32.5 186.5 15.44
32.5 187.5 15.31
32.5 188.5 15.17
32.5 189.5 15.04
32.5 190.5 14.92
32.5 191.5 14.86
32.5 192.5 14.81
32.5 193.5 14.92
32.5 194.5 15.07
32.5 195.5 15.16
32.5 196.5 15.06
32.5 197.5 15.07
32.5 198.5 15.08
32.5 199.5 15.11
32.5 200.5 15.23
32.5 201.5 15.24
32.5 202.5 15.25
32.5 203.5 15.37
32.5 204.5 15.57
32.5 205.5 15.7
32.5 206.5 15.76
32.5 207.5 15.86
32.5 208.5 16.02
32.5 209.5 16.11
31.5 180.5 17.02
31.5 181.5 17.1
31.5 182.5 17.22
31.5 183.5 17.22
31.5 184.5 16.84
31.5 185.5 16.64
31.5 186.5 16.49
31.5 187.5 16.33
31.5 188.5 16.13
31.5 189.5 16.1
31.5 190.5 16.07
31.5 191.5 16.08
31.5 192.5 15.97
31.5 193.5 15.97
31.5 194.5 16.01
31.5 195.5 16.07
31.5 196.5 15.91
31.5 197.5 15.97
31.5 198.5 16.03
31.5 199.5 16.09
31.5 200.5 16.16
31.5 201.5 16.14
31.5 202.5 16.13
31.5 203.5 16.21
31.5 204.5 16.36
31.5 205.5 16.48
31.5 206.5 16.55
31.5 207.5 16.66
31.5 208.5 16.71
31.5 209.5 16.76
30.5 180.5 17.97
30.5 181.5 18.02
30.5 182.5 18.11
30.5 183.5 18.1
30.5 184.5 17.7
30.5 185.5 17.5
30.5 186.5 17.33
30.5 187.5 17.19
30.5 188.5 17.13
30.5 189.5 17.17
30.5 190.5 17.16
30.5 191.5 17.18
30.5 192.5 17.17
30.5 193.5 17.08
30.5 194.5 17.02
30.5 195.5 17.03
30.5 196.5 16.89
30.5 197.5 16.97
30.5 198.5 17.03
30.5 199.5 17.1
30.5 200.5 17.12
30.5 201.5 17.09
30.5 202.5 17.04
30.5 203.5 17.04
30.5 204.5 17.12
30.5 205.5 17.23
30.5 206.5 17.35
30.5 207.5 17.5
30.5 208.5 17.56
30.5 209.5 17.57
29.5 180.5 18.91
29.5 181.5 18.89
29.5 182.5 18.9
29.5 183.5 18.83
29.5 184.5 18.41
29.5 185.5 18.18
29.5 186.5 18
29.5 187.5 17.91
29.5 188.5 18.05
29.5 189.5 18.15
29.5 190.5 18.17
29.5 191.5 18.2
29.5 192.5 18.32
29.5 193.5 18.18
29.5 194.5 18.04
29.5 195.5 17.99
29.5 196.5 17.89
29.5 197.5 17.97
29.5 198.5 18.03
29.5 199.5 18.12
29.5 200.5 18.14
29.5 201.5 18.12
29.5 202.5 18.03
29.5 203.5 17.96
29.5 204.5 17.96
29.5 205.5 18.06
29.5 206.5 18.18
29.5 207.5 18.37
29.5 208.5 18.43
29.5 209.5 18.42
28.5 180.5 19.88
28.5 181.5 19.78
28.5 182.5 19.72
28.5 183.5 19.56
28.5 184.5 19.13
28.5 185.5 18.87
28.5 186.5 18.71
28.5 187.5 18.66
28.5 188.5 18.91
28.5 189.5 19.03
28.5 190.5 19.06
28.5 191.5 19.1
28.5 192.5 19.32
28.5 193.5 19.16
28.5 194.5 18.96
28.5 195.5 18.87
28.5 196.5 18.87
28.5 197.5 18.93
28.5 198.5 18.98
28.5 199.5 19.11
28.5 200.5 19.17
28.5 201.5 19.17
28.5 202.5 19.05
28.5 203.5 18.92
28.5 204.5 18.9
28.5 205.5 18.95
28.5 206.5 19.05
28.5 207.5 19.22
28.5 208.5 19.31
28.5 209.5 19.27
27.5 180.5 20.77
27.5 181.5 20.7
27.5 182.5 20.61
27.5 183.5 20.41
27.5 184.5 20.03
27.5 185.5 19.83
27.5 186.5 19.75
27.5 187.5 19.74
27.5 188.5 19.9
27.5 189.5 19.93
27.5 190.5 19.91
27.5 191.5 19.9
27.5 192.5 20.1
27.5 193.5 19.92
27.5 194.5 19.68
27.5 195.5 19.57
27.5 196.5 19.8
27.5 197.5 19.84
27.5 198.5 19.85
27.5 199.5 19.97
27.5 200.5 20.21
27.5 201.5 20.19
27.5 202.5 20.02
27.5 203.5 19.83
27.5 204.5 19.85
27.5 205.5 19.81
27.5 206.5 19.81
27.5 207.5 19.94
27.5 208.5 20.12
27.5 209.5 20.11
26.5 180.5 21.67
26.5 181.5 21.63
26.5 182.5 21.56
26.5 183.5 21.37
26.5 184.5 21.12
26.5 185.5 21.01
26.5 186.5 20.99
26.5 187.5 20.99
26.5 188.5 20.92
26.5 189.5 20.82
26.5 190.5 20.7
26.5 191.5 20.6
26.5 192.5 20.64
26.5 193.5 20.5
26.5 194.5 20.34
26.5 195.5 20.35
26.5 196.5 20.75
26.5 197.5 20.79
26.5 198.5 20.73
26.5 199.5 20.79
26.5 200.5 21.07
26.5 201.5 21.03
26.5 202.5 20.82
26.5 203.5 20.61
26.5 204.5 20.66
26.5 205.5 20.57
26.5 206.5 20.51
26.5 207.5 20.58
26.5 208.5 20.79
26.5 209.5 20.76
25.5 180.5 22.5
25.5 181.5 22.51
25.5 182.5 22.46
25.5 183.5 22.33
25.5 184.5 22.17
25.5 185.5 22.16
25.5 186.5 22.21
25.5 187.5 22.22
25.5 188.5 21.97
25.5 189.5 21.76
25.5 190.5 21.55
25.5 191.5 21.33
25.5 192.5 21.23
25.5 193.5 21.14
25.5 194.5 21.1
25.5 195.5 21.23
25.5 196.5 21.7
25.5 197.5 21.72
25.5 198.5 21.6
25.5 199.5 21.56
25.5 200.5 21.79
25.5 201.5 21.71
25.5 202.5 21.5
25.5 203.5 21.32
25.5 204.5 21.39
25.5 205.5 21.27
25.5 206.5 21.17
25.5 207.5 21.19
25.5 208.5 21.4
25.5 209.5 21.34
24.5 180.5 23.15
24.5 181.5 23.18
24.5 182.5 23.16
24.5 183.5 23.08
24.5 184.5 22.94
24.5 185.5 23
24.5 186.5 23.1
24.5 187.5 23.14
24.5 188.5 22.86
24.5 189.5 22.6
24.5 190.5 22.32
24.5 191.5 22.04
24.5 192.5 21.94
24.5 193.5 21.92
24.5 194.5 21.97
24.5 195.5 22.17
24.5 196.5 22.58
24.5 197.5 22.55
24.5 198.5 22.37
24.5 199.5 22.23
24.5 200.5 22.35
24.5 201.5 22.25
24.5 202.5 22.07
24.5 203.5 21.96
24.5 204.5 22.07
24.5 205.5 21.97
24.5 206.5 21.84
24.5 207.5 21.8
24.5 208.5 21.94
24.5 209.5 21.87
23.5 180.5 23.48
23.5 181.5 23.51
23.5 182.5 23.52
23.5 183.5 23.51
23.5 184.5 23.35
23.5 185.5 23.44
23.5 186.5 23.56
23.5 187.5 23.62
23.5 188.5 23.4
23.5 189.5 23.18
23.5 190.5 22.91
23.5 191.5 22.67
23.5 192.5 22.78
23.5 193.5 22.83
23.5 194.5 22.93
23.5 195.5 23.1
23.5 196.5 23.34
23.5 197.5 23.28
23.5 198.5 23.08
23.5 199.5 22.88
23.5 200.5 22.85
23.5 201.5 22.74
23.5 202.5 22.62
23.5 203.5 22.59
23.5 204.5 22.75
23.5 205.5 22.65
23.5 206.5 22.49
23.5 207.5 22.37
23.5 208.5 22.4
23.5 209.5 22.37
22.5 180.5 23.81
22.5 181.5 23.8
22.5 182.5 23.81
22.5 183.5 23.81
22.5 184.5 23.66
22.5 185.5 23.74
22.5 186.5 23.85
22.5 187.5 23.93
22.5 188.5 23.81
22.5 189.5 23.67
22.5 190.5 23.47
22.5 191.5 23.3
22.5 192.5 23.49
22.5 193.5 23.57
22.5 194.5 23.67
22.5 195.5 23.79
22.5 196.5 23.87
22.5 197.5 23.76
22.5 198.5 23.55
22.5 199.5 23.33
22.5 200.5 23.26
22.5 201.5 23.17
22.5 202.5 23.11
22.5 203.5 23.14
22.5 204.5 23.33
22.5 205.5 23.23
22.5 206.5 23.05
22.5 207.5 22.88
22.5 208.5 22.77
22.5 209.5 22.7
21.5 180.5 24.19
21.5 181.5 24.15
21.5 182.5 24.16
21.5 183.5 24.18
21.5 184.5 24.1
21.5 185.5 24.17
21.5 186.5 24.26
21.5 187.5 24.32
21.5 188.5 24.26
21.5 189.5 24.19
21.5 190.5 24.07
21.5 191.5 23.96
21.5 192.5 24.11
21.5 193.5 24.17
21.5 194.5 24.24
21.5 195.5 24.3
21.5 196.5 24.29
21.5 197.5 24.15
21.5 198.5 23.97
21.5 199.5 23.78
21.5 200.5 23.72
21.5 201.5 23.66
21.5 202.5 23.63
21.5 203.5 23.66
21.5 204.5 23.76
21.5 205.5 23.64
21.5 206.5 23.45
21.5 207.5 23.25
21.5 208.5 23.05
21.5 209.5 22.95
20.5 180.5 24.64
20.5 181.5 24.61
20.5 182.5 24.62
20.5 183.5 24.67
20.5 184.5 24.67
20.5 185.5 24.74
20.5 186.5 24.79
20.5 187.5 24.82
20.5 188.5 24.78
20.5 189.5 24.73
20.5 190.5 24.66
20.5 191.5 24.58
20.5 192.5 24.63
20.5 193.5 24.65
20.5 194.5 24.67
20.5 195.5 24.68
20.5 196.5 24.66
20.5 197.5 24.54
20.5 198.5 24.41
20.5 199.5 24.27
20.5 200.5 24.23
20.5 201.5 24.18
20.5 202.5 24.15
20.5 203.5 24.14
20.5 204.5 24.1
20.5 205.5 23.95
20.5 206.5 23.74
20.5 207.5 23.52
20.5 208.5 23.29
20.5 209.5 23.2
19.5 180.5 25.16
19.5 181.5 25.15
19.5 182.5 25.16
19.5 183.5 25.18
19.5 184.5 25.17
19.5 185.5 25.22
19.5 186.5 25.26
19.5 187.5 25.28
19.5 188.5 25.24
19.5 189.5 25.2
19.5 190.5 25.14
19.5 191.5 25.08
19.5 192.5 25.08
19.5 193.5 25.06
19.5 194.5 25.03
19.5 195.5 25.01
19.5 196.5 25.04
19.5 197.5 24.97
19.5 198.5 24.89
19.5 199.5 24.8
19.5 200.5 24.75
19.5 201.5 24.69
19.5 202.5 24.63
19.5 203.5 24.55
19.5 204.5 24.36
19.5 205.5 24.17
19.5 206.5 23.95
19.5 207.5 23.73
19.5 208.5 23.52
19.5 209.5 23.45
18.5 180.5 25.6
18.5 181.5 25.57
18.5 182.5 25.54
18.5 183.5 25.52
18.5 184.5 25.46
18.5 185.5 25.48
18.5 186.5 25.49
18.5 187.5 25.48
18.5 188.5 25.44
18.5 189.5 25.39
18.5 190.5 25.35
18.5 191.5 25.31
18.5 192.5 25.32
18.5 193.5 25.3
18.5 194.5 25.28
18.5 195.5 25.27
18.5 196.5 25.3
18.5 197.5 25.25
18.5 198.5 25.19
18.5 199.5 25.11
18.5 200.5 25.01
18.5 201.5 24.92
18.5 202.5 24.83
18.5 203.5 24.73
18.5 204.5 24.52
18.5 205.5 24.33
18.5 206.5 24.14
18.5 207.5 23.97
18.5 208.5 23.82
18.5 209.5 23.77
17.5 180.5 25.87
17.5 181.5 25.81
17.5 182.5 25.75
17.5 183.5 25.67
17.5 184.5 25.57
17.5 185.5 25.55
17.5 186.5 25.53
17.5 187.5 25.51
17.5 188.5 25.49
17.5 189.5 25.45
17.5 190.5 25.42
17.5 191.5 25.4
17.5 192.5 25.45
17.5 193.5 25.44
17.5 194.5 25.44
17.5 195.5 25.43
17.5 196.5 25.46
17.5 197.5 25.4
17.5 198.5 25.34
17.5 199.5 25.24
17.5 200.5 25.11
17.5 201.5 25
17.5 202.5 24.91
17.5 203.5 24.81
17.5 204.5 24.62
17.5 205.5 24.48
17.5 206.5 24.36
17.5 207.5 24.24
17.5 208.5 24.15
17.5 209.5 24.12
16.5 180.5 26
16.5 181.5 25.93
16.5 182.5 25.83
16.5 183.5 25.71
16.5 184.5 25.58
16.5 185.5 25.54
16.5 186.5 25.52
16.5 187.5 25.5
16.5 188.5 25.51
16.5 189.5 25.49
16.5 190.5 25.48
16.5 191.5 25.48
16.5 192.5 25.55
16.5 193.5 25.55
16.5 194.5 25.55
16.5 195.5 25.53
16.5 196.5 25.51
16.5 197.5 25.44
16.5 198.5 25.36
16.5 199.5 25.26
16.5 200.5 25.13
16.5 201.5 25.04
16.5 202.5 24.96
16.5 203.5 24.89
16.5 204.5 24.77
16.5 205.5 24.7
16.5 206.5 24.63
16.5 207.5 24.56
16.5 208.5 24.5
16.5 209.5 24.48
15.5 180.5 26.04
15.5 181.5 25.95
15.5 182.5 25.84
15.5 183.5 25.71
15.5 184.5 25.62
15.5 185.5 25.61
15.5 186.5 25.6
15.5 187.5 25.6
15.5 188.5 25.64
15.5 189.5 25.61
15.5 190.5 25.6
15.5 191.5 25.62
15.5 192.5 25.66
15.5 193.5 25.67
15.5 194.5 25.66
15.5 195.5 25.61
15.5 196.5 25.5
15.5 197.5 25.43
15.5 198.5 25.36
15.5 199.5 25.26
15.5 200.5 25.17
15.5 201.5 25.1
15.5 202.5 25.07
15.5 203.5 25.06
15.5 204.5 25.04
15.5 205.5 25.03
15.5 206.5 25
15.5 207.5 24.96
15.5 208.5 24.88
15.5 209.5 24.82
14.5 180.5 26.1
14.5 181.5 26.03
14.5 182.5 25.93
14.5 183.5 25.82
14.5 184.5 25.77
14.5 185.5 25.77
14.5 186.5 25.77
14.5 187.5 25.78
14.5 188.5 25.82
14.5 189.5 25.78
14.5 190.5 25.76
14.5 191.5 25.78
14.5 192.5 25.78
14.5 193.5 25.78
14.5 194.5 25.76
14.5 195.5 25.69
14.5 196.5 25.56
14.5 197.5 25.49
14.5 198.5 25.44
14.5 199.5 25.38
14.5 200.5 25.32
14.5 201.5 25.28
14.5 202.5 25.28
14.5 203.5 25.3
14.5 204.5 25.35
14.5 205.5 25.38
14.5 206.5 25.37
14.5 207.5 25.33
14.5 208.5 25.25
14.5 209.5 25.18
13.5 180.5 26.18
13.5 181.5 26.12
13.5 182.5 26.05
13.5 183.5 25.97
13.5 184.5 25.98
13.5 185.5 25.98
13.5 186.5 25.97
13.5 187.5 25.98
13.5 188.5 26
13.5 189.5 25.95
13.5 190.5 25.92
13.5 191.5 25.92
13.5 192.5 25.88
13.5 193.5 25.87
13.5 194.5 25.85
13.5 195.5 25.78
13.5 196.5 25.67
13.5 197.5 25.63
13.5 198.5 25.62
13.5 199.5 25.6
13.5 200.5 25.57
13.5 201.5 25.56
13.5 202.5 25.59
13.5 203.5 25.64
13.5 204.5 25.7
13.5 205.5 25.72
13.5 206.5 25.7
13.5 207.5 25.65
13.5 208.5 25.56
13.5 209.5 25.5
12.5 180.5 26.26
12.5 181.5 26.22
12.5 182.5 26.17
12.5 183.5 26.14
12.5 184.5 26.19
12.5 185.5 26.2
12.5 186.5 26.19
12.5 187.5 26.18
12.5 188.5 26.16
12.5 189.5 26.1
12.5 190.5 26.05
12.5 191.5 26.04
12.5 192.5 26
12.5 193.5 25.99
12.5 194.5 25.97
12.5 195.5 25.91
12.5 196.5 25.86
12.5 197.5 25.87
12.5 198.5 25.9
12.5 199.5 25.92
12.5 200.5 25.92
12.5 201.5 25.94
12.5 202.5 25.99
12.5 203.5 26.05
12.5 204.5 26.05
12.5 205.5 26.04
12.5 206.5 25.99
12.5 207.5 25.91
12.5 208.5 25.82
12.5 209.5 25.77
11.5 180.5 26.32
11.5 181.5 26.29
11.5 182.5 26.26
11.5 183.5 26.28
11.5 184.5 26.37
11.5 185.5 26.38
11.5 186.5 26.37
11.5 187.5 26.34
11.5 188.5 26.31
11.5 189.5 26.27
11.5 190.5 26.24
11.5 191.5 26.24
11.5 192.5 26.24
11.5 193.5 26.21
11.5 194.5 26.19
11.5 195.5 26.15
11.5 196.5 26.18
11.5 197.5 26.24
11.5 198.5 26.29
11.5 199.5 26.34
11.5 200.5 26.36
11.5 201.5 26.39
11.5 202.5 26.45
11.5 203.5 26.51
11.5 204.5 26.39
11.5 205.5 26.35
11.5 206.5 26.27
11.5 207.5 26.15
11.5 208.5 26.04
11.5 209.5 26
10.5 180.5 26.46
10.5 181.5 26.42
10.5 182.5 26.41
10.5 183.5 26.45
10.5 184.5 26.56
10.5 185.5 26.57
10.5 186.5 26.55
10.5 187.5 26.51
10.5 188.5 26.5
10.5 189.5 26.5
10.5 190.5 26.5
10.5 191.5 26.55
10.5 192.5 26.58
10.5 193.5 26.57
10.5 194.5 26.55
10.5 195.5 26.52
10.5 196.5 26.53
10.5 197.5 26.58
10.5 198.5 26.62
10.5 199.5 26.65
10.5 200.5 26.7
10.5 201.5 26.73
10.5 202.5 26.79
10.5 203.5 26.85
10.5 204.5 26.74
10.5 205.5 26.7
10.5 206.5 26.62
10.5 207.5 26.5
10.5 208.5 26.37
10.5 209.5 26.34
