39.5 180.5 13.14
39.5 181.5 13.24
39.5 182.5 13.31
39.5 183.5 13.4
39.5 184.5 13.86
39.5 185.5 13.66
39.5 186.5 13.35
39.5 187.5 13.04
39.5 188.5 12.84
39.5 189.5 12.86
39.5 190.5 12.97
39.5 191.5 12.99
39.5 192.5 12.63
39.5 193.5 12.62
39.5 194.5 12.7
39.5 195.5 12.67
39.5 196.5 12.13
39.5 197.5 11.99
39.5 198.5 11.96
39.5 199.5 11.92
39.5 200.5 11.88
39.5 201.5 11.89
39.5 202.5 11.95
39.5 203.5 12.1
39.5 204.5 12.34
39.5 205.5 12.5
39.5 206.5 12.68
39.5 207.5 12.98
39.5 208.5 13.49
39.5 209.5 13.76
38.5 180.5 14.16
38.5 181.5 14.33
38.5 182.5 14.43
38.5 183.5 14.54
38.5 184.5 15.05
38.5 185.5 14.86
38.5 186.5 14.55
38.5 187.5 14.22
38.5 188.5 13.94
38.5 189.5 13.9
38.5 190.5 13.98
38.5 191.5 13.93
38.5 192.5 13.41
38.5 193.5 13.32
38.5 194.5 13.37
38.5 195.5 13.3
38.5 196.5 12.66
38.5 197.5 12.48
38.5 198.5 12.43
38.5 199.5 12.42
38.5 200.5 12.47
38.5 201.5 12.52
38.5 202.5 12.6
38.5 203.5 12.76
38.5 204.5 13.1
38.5 205.5 13.28
38.5 206.5 13.49
38.5 207.5 13.8
38.5 208.5 14.3
38.5 209.5 14.57
37.5 180.5 15.24
37.5 181.5 15.4
37.5 182.5 15.49
37.5 183.5 15.55
37.5 184.5 15.96
37.5 185.5 15.78
37.5 186.5 15.49
37.5 187.5 15.16
37.5 188.5 14.8
37.5 189.5 14.68
37.5 190.5 14.68
37.5 191.5 14.56
37.5 192.5 13.91
37.5 193.5 13.76
37.5 194.5 13.79
37.5 195.5 13.73
37.5 196.5 13.18
37.5 197.5 13.01
37.5 198.5 12.96
37.5 199.5 12.98
37.5 200.5 13.15
37.5 201.5 13.24
37.5 202.5 13.35
37.5 203.5 13.54
37.5 204.5 13.97
37.5 205.5 14.18
37.5 206.5 14.41
37.5 207.5 14.71
37.5 208.5 15.15
37.5 209.5 15.39
36.5 180.5 16.42
36.5 181.5 16.48
36.5 182.5 16.49
36.5 183.5 16.43
36.5 184.5 16.59
36.5 185.5 16.39
36.5 186.5 16.15
36.5 187.5 15.86
36.5 188.5 15.48
36.5 189.5 15.27
36.5 190.5 15.16
36.5 191.5 14.95
36.5 192.5 14.26
36.5 193.5 14.1
36.5 194.5 14.14
36.5 195.5 14.15
36.5 196.5 13.81
36.5 197.5 13.68
36.5 198.5 13.63
36.5 199.5 13.67
36.5 200.5 13.97
36.5 201.5 14.11
36.5 202.5 14.26
36.5 203.5 14.48
36.5 204.5 14.99
36.5 205.5 15.2
36.5 206.5 15.41
36.5 207.5 15.66
36.5 208.5 15.99
36.5 209.5 16.2
35.5 180.5 17.76
35.5 181.5 17.64
35.5 182.5 17.51
35.5 183.5 17.28
35.5 184.5 17.03
35.5 185.5 16.79
35.5 186.5 16.59
35.5 187.5 16.37
35.5 188.5 16.13
35.5 189.5 15.81
35.5 190.5 15.55
35.5 191.5 15.25
35.5 192.5 14.67
35.5 193.5 14.55
35.5 194.5 14.64
35.5 195.5 14.74
35.5 196.5 14.57
35.5 197.5 14.49
35.5 198.5 14.45
35.5 199.5 14.5
35.5 200.5 14.9
35.5 201.5 15.11
35.5 202.5 15.32
35.5 203.5 15.6
35.5 204.5 16.09
35.5 205.5 16.27
35.5 206.5 16.42
35.5 207.5 16.6
35.5 208.5 16.8
35.5 209.5 17
34.5 180.5 18.87
34.5 181.5 18.66
34.5 182.5 18.45
34.5 183.5 18.12
34.5 184.5 17.65
34.5 185.5 17.34
34.5 186.5 17.12
34.5 187.5 16.95
34.5 188.5 16.82
34.5 189.5 16.49
34.5 190.5 16.19
34.5 191.5 15.91
34.5 192.5 15.52
34.5 193.5 15.45
34.5 194.5 15.52
34.5 195.5 15.62
34.5 196.5 15.52
34.5 197.5 15.5
34.5 198.5 15.5
34.5 199.5 15.57
34.5 200.5 15.98
34.5 201.5 16.17
34.5 202.5 16.37
34.5 203.5 16.63
34.5 204.5 17.05
34.5 205.5 17.23
34.5 206.5 17.37
34.5 207.5 17.52
34.5 208.5 17.66
34.5 209.5 17.81
33.5 180.5 19.8
33.5 181.5 19.6
33.5 182.5 19.39
33.5 183.5 19.06
33.5 184.5 18.52
33.5 185.5 18.19
33.5 186.5 17.95
33.5 187.5 17.8
33.5 188.5 17.72
33.5 189.5 17.43
33.5 190.5 17.12
33.5 191.5 16.87
33.5 192.5 16.72
33.5 193.5 16.66
33.5 194.5 16.66
33.5 195.5 16.7
33.5 196.5 16.63
33.5 197.5 16.65
33.5 198.5 16.7
33.5 199.5 16.77
33.5 200.5 17.06
33.5 201.5 17.17
33.5 202.5 17.31
33.5 203.5 17.5
33.5 204.5 17.84
33.5 205.5 18.02
33.5 206.5 18.18
33.5 207.5 18.35
33.5 208.5 18.51
33.5 209.5 18.63
32.5 180.5 20.55
32.5 181.5 20.41
32.5 182.5 20.27
32.5 183.5 20.03
32.5 184.5 19.59
32.5 185.5 19.29
32.5 186.5 19.05
32.5 187.5 18.91
32.5 188.5 18.82
32.5 189.5 18.55
32.5 190.5 18.25
32.5 191.5 18.02
32.5 192.5 18.04
32.5 193.5 17.96
32.5 194.5 17.9
32.5 195.5 17.87
32.5 196.5 17.84
32.5 197.5 17.89
32.5 198.5 17.96
32.5 199.5 18.03
32.5 200.5 18.11
32.5 201.5 18.13
32.5 202.5 18.19
32.5 203.5 18.29
32.5 204.5 18.52
32.5 205.5 18.69
32.5 206.5 18.87
32.5 207.5 19.08
32.5 208.5 19.34
32.5 209.5 19.44
31.5 180.5 20.96
31.5 181.5 20.95
31.5 182.5 20.95
31.5 183.5 20.91
31.5 184.5 20.72
31.5 185.5 20.5
31.5 186.5 20.27
31.5 187.5 20.13
31.5 188.5 19.95
31.5 189.5 19.72
31.5 190.5 19.46
31.5 191.5 19.25
31.5 192.5 19.23
31.5 193.5 19.13
31.5 194.5 19.04
31.5 195.5 19
31.5 196.5 19.07
31.5 197.5 19.1
31.5 198.5 19.12
31.5 199.5 19.13
31.5 200.5 19.04
31.5 201.5 19
31.5 202.5 19.02
31.5 203.5 19.09
31.5 204.5 19.29
31.5 205.5 19.42
31.5 206.5 19.59
31.5 207.5 19.81
31.5 208.5 20.19
31.5 209.5 20.29
30.5 180.5 21.56
30.5 181.5 21.6
30.5 182.5 21.69
30.5 183.5 21.77
30.5 184.5 21.75
30.5 185.5 21.62
30.5 186.5 21.44
30.5 187.5 21.29
30.5 188.5 21.08
30.5 189.5 20.86
30.5 190.5 20.62
30.5 191.5 20.43
30.5 192.5 20.41
30.5 193.5 20.3
30.5 194.5 20.19
30.5 195.5 20.13
30.5 196.5 20.25
30.5 197.5 20.24
30.5 198.5 20.2
30.5 199.5 20.17
30.5 200.5 20.14
30.5 201.5 20.09
30.5 202.5 20.08
30.5 203.5 20.12
30.5 204.5 20.27
30.5 205.5 20.35
30.5 206.5 20.48
30.5 207.5 20.67
30.5 208.5 21.01
30.5 209.5 21.1
29.5 180.5 22.33
29.5 181.5 22.39
29.5 182.5 22.51
29.5 183.5 22.62
29.5 184.5 22.66
29.5 185.5 22.58
29.5 186.5 22.43
29.5 187.5 22.26
29.5 188.5 22.03
29.5 189.5 21.83
29.5 190.5 21.63
29.5 191.5 21.5
29.5 192.5 21.48
29.5 193.5 21.4
29.5 194.5 21.3
29.5 195.5 21.25
29.5 196.5 21.36
29.5 197.5 21.31
29.5 198.5 21.22
29.5 199.5 21.16
29.5 200.5 21.28
29.5 201.5 21.23
29.5 202.5 21.21
29.5 203.5 21.23
29.5 204.5 21.35
29.5 205.5 21.36
29.5 206.5 21.41
29.5 207.5 21.54
29.5 208.5 21.75
29.5 209.5 21.82
28.5 180.5 23.22
28.5 181.5 23.26
28.5 182.5 23.36
28.5 183.5 23.44
28.5 184.5 23.4
28.5 185.5 23.31
28.5 186.5 23.16
28.5 187.5 22.98
28.5 188.5 22.74
28.5 189.5 22.56
28.5 190.5 22.42
28.5 191.5 22.37
28.5 192.5 22.36
28.5 193.5 22.34
28.5 194.5 22.29
28.5 195.5 22.27
28.5 196.5 22.33
28.5 197.5 22.26
28.5 198.5 22.13
28.5 199.5 22.05
28.5 200.5 22.3
28.5 201.5 22.29
28.5 202.5 22.29
28.5 203.5 22.31
28.5 204.5 22.41
28.5 205.5 22.34
28.5 206.5 22.31
28.5 207.5 22.34
28.5 208.5 22.37
28.5 209.5 22.42
27.5 180.5 24.08
27.5 181.5 24.1
27.5 182.5 24.16
27.5 183.5 24.17
27.5 184.5 24.03
27.5 185.5 23.92
27.5 186.5 23.79
27.5 187.5 23.62
27.5 188.5 23.36
27.5 189.5 23.21
27.5 190.5 23.13
27.5 191.5 23.12
27.5 192.5 23.04
27.5 193.5 23.09
27.5 194.5 23.11
27.5 195.5 23.12
27.5 196.5 23.13
27.5 197.5 22.99
27.5 198.5 22.8
27.5 199.5 22.69
27.5 200.5 22.96
27.5 201.5 23.06
27.5 202.5 23.16
27.5 203.5 23.28
27.5 204.5 23.37
27.5 205.5 23.24
27.5 206.5 23.1
27.5 207.5 23.02
27.5 208.5 22.93
27.5 209.5 22.95
26.5 180.5 24.98
26.5 181.5 24.96
26.5 182.5 24.95
26.5 183.5 24.87
26.5 184.5 24.66
26.5 185.5 24.52
26.5 186.5 24.41
26.5 187.5 24.27
26.5 188.5 24.04
26.5 189.5 23.92
26.5 190.5 23.85
26.5 191.5 23.82
26.5 192.5 23.68
26.5 193.5 23.7
26.5 194.5 23.72
26.5 195.5 23.74
26.5 196.5 23.77
26.5 197.5 23.66
26.5 198.5 23.51
26.5 199.5 23.42
26.5 200.5 23.63
26.5 201.5 23.71
26.5 202.5 23.78
26.5 203.5 23.87
26.5 204.5 23.95
26.5 205.5 23.82
26.5 206.5 23.66
26.5 207.5 23.56
26.5 208.5 23.48
26.5 209.5 23.48
25.5 180.5 25.71
25.5 181.5 25.67
25.5 182.5 25.6
25.5 183.5 25.46
25.5 184.5 25.22
25.5 185.5 25.09
25.5 186.5 25
25.5 187.5 24.91
25.5 188.5 24.7
25.5 189.5 24.6
25.5 190.5 24.53
25.5 191.5 24.46
25.5 192.5 24.23
25.5 193.5 24.2
25.5 194.5 24.21
25.5 195.5 24.22
25.5 196.5 24.27
25.5 197.5 24.2
25.5 198.5 24.09
25.5 199.5 24.03
25.5 200.5 24.16
25.5 201.5 24.2
25.5 202.5 24.22
25.5 203.5 24.27
25.5 204.5 24.37
25.5 205.5 24.25
25.5 206.5 24.1
25.5 207.5 24.02
25.5 208.5 23.99
25.5 209.5 23.97
24.5 180.5 26.16
24.5 181.5 26.11
24.5 182.5 26.01
24.5 183.5 25.83
24.5 184.5 25.58
24.5 185.5 25.46
24.5 186.5 25.42
24.5 187.5 25.37
24.5 188.5 25.21
24.5 189.5 25.13
24.5 190.5 25.07
24.5 191.5 24.96
24.5 192.5 24.71
24.5 193.5 24.65
24.5 194.5 24.63
24.5 195.5 24.63
24.5 196.5 24.69
24.5 197.5 24.65
24.5 198.5 24.57
24.5 199.5 24.52
24.5 200.5 24.56
24.5 201.5 24.56
24.5 202.5 24.53
24.5 203.5 24.53
24.5 204.5 24.63
24.5 205.5 24.55
24.5 206.5 24.43
24.5 207.5 24.38
24.5 208.5 24.41
24.5 209.5 24.37
23.5 180.5 26.32
23.5 181.5 26.3
23.5 182.5 26.21
23.5 183.5 26.02
23.5 184.5 25.73
23.5 185.5 25.62
23.5 186.5 25.61
23.5 187.5 25.62
23.5 188.5 25.53
23.5 189.5 25.47
23.5 190.5 25.41
23.5 191.5 25.31
23.5 192.5 25.19
23.5 193.5 25.14
23.5 194.5 25.12
23.5 195.5 25.11
23.5 196.5 25.13
23.5 197.5 25.06
23.5 198.5 24.97
23.5 199.5 24.9
23.5 200.5 24.89
23.5 201.5 24.86
23.5 202.5 24.81
23.5 203.5 24.77
23.5 204.5 24.84
23.5 205.5 24.8
23.5 206.5 24.73
23.5 207.5 24.7
23.5 208.5 24.73
23.5 209.5 24.66
22.5 180.5 26.42
22.5 181.5 26.4
22.5 182.5 26.29
22.5 183.5 26.08
22.5 184.5 25.84
22.5 185.5 25.72
22.5 186.5 25.71
22.5 187.5 25.74
22.5 188.5 25.72
22.5 189.5 25.7
22.5 190.5 25.68
22.5 191.5 25.62
22.5 192.5 25.58
22.5 193.5 25.57
22.5 194.5 25.57
22.5 195.5 25.58
22.5 196.5 25.61
22.5 197.5 25.57
22.5 198.5 25.47
22.5 199.5 25.38
22.5 200.5 25.36
22.5 201.5 25.29
22.5 202.5 25.19
22.5 203.5 25.11
22.5 204.5 25.12
22.5 205.5 25.06
22.5 206.5 25
22.5 207.5 24.98
22.5 208.5 24.98
22.5 209.5 24.89
21.5 180.5 26.55
21.5 181.5 26.51
21.5 182.5 26.38
21.5 183.5 26.17
21.5 184.5 26.01
21.5 185.5 25.91
21.5 186.5 25.9
21.5 187.5 25.95
21.5 188.5 25.99
21.5 189.5 26.02
21.5 190.5 26.03
21.5 191.5 26.01
21.5 192.5 26
21.5 193.5 26.01
21.5 194.5 26.01
21.5 195.5 26.03
21.5 196.5 26.05
21.5 197.5 26.01
21.5 198.5 25.92
21.5 199.5 25.82
21.5 200.5 25.81
21.5 201.5 25.73
21.5 202.5 25.6
21.5 203.5 25.48
21.5 204.5 25.45
21.5 205.5 25.37
21.5 206.5 25.29
21.5 207.5 25.25
21.5 208.5 25.19
21.5 209.5 25.08
20.5 180.5 26.79
20.5 181.5 26.74
20.5 182.5 26.59
20.5 183.5 26.4
20.5 184.5 26.31
20.5 185.5 26.23
20.5 186.5 26.21
20.5 187.5 26.28
20.5 188.5 26.37
20.5 189.5 26.43
20.5 190.5 26.45
20.5 191.5 26.44
20.5 192.5 26.41
20.5 193.5 26.41
20.5 194.5 26.39
20.5 195.5 26.38
20.5 196.5 26.36
20.5 197.5 26.31
20.5 198.5 26.2
20.5 199.5 26.11
20.5 200.5 26.16
20.5 201.5 26.09
20.5 202.5 25.96
20.5 203.5 25.83
20.5 204.5 25.77
20.5 205.5 25.67
20.5 206.5 25.56
20.5 207.5 25.46
20.5 208.5 25.33
20.5 209.5 25.17
19.5 180.5 27.07
19.5 181.5 27.05
19.5 182.5 26.93
19.5 183.5 26.78
19.5 184.5 26.67
19.5 185.5 26.59
19.5 186.5 26.58
19.5 187.5 26.64
19.5 188.5 26.7
19.5 189.5 26.74
19.5 190.5 26.75
19.5 191.5 26.72
19.5 192.5 26.63
19.5 193.5 26.61
19.5 194.5 26.55
19.5 195.5 26.48
19.5 196.5 26.44
19.5 197.5 26.35
19.5 198.5 26.25
19.5 199.5 26.19
19.5 200.5 26.31
19.5 201.5 26.28
19.5 202.5 26.18
19.5 203.5 26.07
19.5 204.5 25.98
19.5 205.5 25.85
19.5 206.5 25.72
19.5 207.5 25.57
19.5 208.5 25.35
19.5 209.5 25.15
18.5 180.5 27.2
18.5 181.5 27.19
18.5 182.5 27.11
18.5 183.5 27
18.5 184.5 26.9
18.5 185.5 26.85
18.5 186.5 26.83
18.5 187.5 26.88
18.5 188.5 26.91
18.5 189.5 26.93
18.5 190.5 26.9
18.5 191.5 26.84
18.5 192.5 26.74
18.5 193.5 26.67
18.5 194.5 26.58
18.5 195.5 26.46
18.5 196.5 26.39
18.5 197.5 26.28
18.5 198.5 26.2
18.5 199.5 26.17
18.5 200.5 26.31
18.5 201.5 26.28
18.5 202.5 26.2
18.5 203.5 26.1
18.5 204.5 25.99
18.5 205.5 25.86
18.5 206.5 25.73
18.5 207.5 25.58
18.5 208.5 25.33
18.5 209.5 25.14
17.5 180.5 27.22
17.5 181.5 27.22
17.5 182.5 27.17
17.5 183.5 27.11
17.5 184.5 27.05
17.5 185.5 27.01
17.5 186.5 26.99
17.5 187.5 27.01
17.5 188.5 26.98
17.5 189.5 26.96
17.5 190.5 26.9
17.5 191.5 26.81
17.5 192.5 26.71
17.5 193.5 26.62
17.5 194.5 26.51
17.5 195.5 26.37
17.5 196.5 26.3
17.5 197.5 26.2
17.5 198.5 26.15
17.5 199.5 26.13
17.5 200.5 26.21
17.5 201.5 26.17
17.5 202.5 26.09
17.5 203.5 26
17.5 204.5 25.89
17.5 205.5 25.78
17.5 206.5 25.69
17.5 207.5 25.58
17.5 208.5 25.39
17.5 209.5 25.26
16.5 180.5 27.21
16.5 181.5 27.2
16.5 182.5 27.18
16.5 183.5 27.16
16.5 184.5 27.14
16.5 185.5 27.09
16.5 186.5 27.06
16.5 187.5 27.04
16.5 188.5 26.96
16.5 189.5 26.9
16.5 190.5 26.82
16.5 191.5 26.71
16.5 192.5 26.62
16.5 193.5 26.52
16.5 194.5 26.42
16.5 195.5 26.31
16.5 196.5 26.28
16.5 197.5 26.21
16.5 198.5 26.17
16.5 199.5 26.16
16.5 200.5 26.16
16.5 201.5 26.1
16.5 202.5 26.03
16.5 203.5 25.93
16.5 204.5 25.8
16.5 205.5 25.74
16.5 206.5 25.7
16.5 207.5 25.68
16.5 208.5 25.6
16.5 209.5 25.55
15.5 180.5 27.24
15.5 181.5 27.21
15.5 182.5 27.2
15.5 183.5 27.2
15.5 184.5 27.18
15.5 185.5 27.15
15.5 186.5 27.11
15.5 187.5 27.07
15.5 188.5 26.95
15.5 189.5 26.86
15.5 190.5 26.77
15.5 191.5 26.65
15.5 192.5 26.56
15.5 193.5 26.48
15.5 194.5 26.42
15.5 195.5 26.36
15.5 196.5 26.35
15.5 197.5 26.3
15.5 198.5 26.28
15.5 199.5 26.27
15.5 200.5 26.24
15.5 201.5 26.2
15.5 202.5 26.13
15.5 203.5 26.02
15.5 204.5 25.85
15.5 205.5 25.81
15.5 206.5 25.83
15.5 207.5 25.9
15.5 208.5 25.94
15.5 209.5 25.97
14.5 180.5 27.35
14.5 181.5 27.29
14.5 182.5 27.25
14.5 183.5 27.22
14.5 184.5 27.17
14.5 185.5 27.14
14.5 186.5 27.12
14.5 187.5 27.08
14.5 188.5 26.98
14.5 189.5 26.87
14.5 190.5 26.77
14.5 191.5 26.64
14.5 192.5 26.56
14.5 193.5 26.49
14.5 194.5 26.44
14.5 195.5 26.41
14.5 196.5 26.42
14.5 197.5 26.39
14.5 198.5 26.39
14.5 199.5 26.4
14.5 200.5 26.37
14.5 201.5 26.33
14.5 202.5 26.27
14.5 203.5 26.15
14.5 204.5 25.97
14.5 205.5 25.92
14.5 206.5 25.94
14.5 207.5 26.03
14.5 208.5 26.12
14.5 209.5 26.2
13.5 180.5 27.48
13.5 181.5 27.39
13.5 182.5 27.32
13.5 183.5 27.26
13.5 184.5 27.18
13.5 185.5 27.15
13.5 186.5 27.15
13.5 187.5 27.14
13.5 188.5 27.07
13.5 189.5 26.97
13.5 190.5 26.85
13.5 191.5 26.71
13.5 192.5 26.62
13.5 193.5 26.55
13.5 194.5 26.52
13.5 195.5 26.49
13.5 196.5 26.49
13.5 197.5 26.47
13.5 198.5 26.47
13.5 199.5 26.5
13.5 200.5 26.49
13.5 201.5 26.45
13.5 202.5 26.39
13.5 203.5 26.28
13.5 204.5 26.1
13.5 205.5 26.02
13.5 206.5 25.99
13.5 207.5 26.04
13.5 208.5 26.14
13.5 209.5 26.24
12.5 180.5 27.6
12.5 181.5 27.51
12.5 182.5 27.43
12.5 183.5 27.33
12.5 184.5 27.26
12.5 185.5 27.24
12.5 186.5 27.26
12.5 187.5 27.28
12.5 188.5 27.23
12.5 189.5 27.13
12.5 190.5 27.01
12.5 191.5 26.86
12.5 192.5 26.74
12.5 193.5 26.67
12.5 194.5 26.64
12.5 195.5 26.62
12.5 196.5 26.6
12.5 197.5 26.58
12.5 198.5 26.59
12.5 199.5 26.63
12.5 200.5 26.63
12.5 201.5 26.6
12.5 202.5 26.53
12.5 203.5 26.43
12.5 204.5 26.22
12.5 205.5 26.1
12.5 206.5 26.01
12.5 207.5 25.99
12.5 208.5 26.1
12.5 209.5 26.19
11.5 180.5 27.73
11.5 181.5 27.64
11.5 182.5 27.56
11.5 183.5 27.46
11.5 184.5 27.4
11.5 185.5 27.39
11.5 186.5 27.44
11.5 187.5 27.49
11.5 188.5 27.47
11.5 189.5 27.39
11.5 190.5 27.28
11.5 191.5 27.13
11.5 192.5 26.97
11.5 193.5 26.9
11.5 194.5 26.87
11.5 195.5 26.88
11.5 196.5 26.85
11.5 197.5 26.84
11.5 198.5 26.84
11.5 199.5 26.88
11.5 200.5 26.93
11.5 201.5 26.92
11.5 202.5 26.86
11.5 203.5 26.74
11.5 204.5 26.46
11.5 205.5 26.27
11.5 206.5 26.11
11.5 207.5 26.02
11.5 208.5 26.19
11.5 209.5 26.31
10.5 180.5 27.86
10.5 181.5 27.8
10.5 182.5 27.75
10.5 183.5 27.68
10.5 184.5 27.61
10.5 185.5 27.61
10.5 186.5 27.67
10.5 187.5 27.72
10.5 188.5 27.69
10.5 189.5 27.62
10.5 190.5 27.52
10.5 191.5 27.41
10.5 192.5 27.29
10.5 193.5 27.23
10.5 194.5 27.23
10.5 195.5 27.26
10.5 196.5 27.26
10.5 197.5 27.27
10.5 198.5 27.26
10.5 199.5 27.3
10.5 200.5 27.35
10.5 201.5 27.35
10.5 202.5 27.28
10.5 203.5 27.16
10.5 204.5 26.87
10.5 205.5 26.65
10.5 206.5 26.45
10.5 207.5 26.34
10.5 208.5 26.57
10.5 209.5 26.72
