39.5 180.5 16.07
39.5 181.5 16
39.5 182.5 16.05
39.5 183.5 16.12
39.5 184.5 16.08
39.5 185.5 16.07
39.5 186.5 16.11
39.5 187.5 16.13
39.5 188.5 16.14
39.5 189.5 16.22
39.5 190.5 16.36
39.5 191.5 16.48
39.5 192.5 16.49
39.5 193.5 16.61
39.5 194.5 16.76
39.5 195.5 16.88
39.5 196.5 16.7
39.5 197.5 16.8
39.5 198.5 16.99
39.5 199.5 17.18
39.5 200.5 17.24
39.5 201.5 17.46
39.5 202.5 17.7
39.5 203.5 17.92
39.5 204.5 18.17
39.5 205.5 18.42
39.5 206.5 18.71
39.5 207.5 18.97
39.5 208.5 19.54
39.5 209.5 19.58
38.5 180.5 17.46
38.5 181.5 17.48
38.5 182.5 17.52
38.5 183.5 17.53
38.5 184.5 17.43
38.5 185.5 17.37
38.5 186.5 17.39
38.5 187.5 17.37
38.5 188.5 17.24
38.5 189.5 17.29
38.5 190.5 17.43
38.5 191.5 17.52
38.5 192.5 17.4
38.5 193.5 17.44
38.5 194.5 17.56
38.5 195.5 17.67
38.5 196.5 17.52
38.5 197.5 17.63
38.5 198.5 17.82
38.5 199.5 18.02
38.5 200.5 18.15
38.5 201.5 18.38
38.5 202.5 18.6
38.5 203.5 18.79
38.5 204.5 18.96
38.5 205.5 19.16
38.5 206.5 19.4
38.5 207.5 19.61
38.5 208.5 20.04
38.5 209.5 20.04
37.5 180.5 18.79
37.5 181.5 18.86
37.5 182.5 18.89
37.5 183.5 18.85
37.5 184.5 18.6
37.5 185.5 18.48
37.5 186.5 18.48
37.5 187.5 18.4
37.5 188.5 18.07
37.5 189.5 18.09
37.5 190.5 18.24
37.5 191.5 18.32
37.5 192.5 18.11
37.5 193.5 18.1
37.5 194.5 18.2
37.5 195.5 18.33
37.5 196.5 18.34
37.5 197.5 18.5
37.5 198.5 18.68
37.5 199.5 18.86
37.5 200.5 19.06
37.5 201.5 19.27
37.5 202.5 19.46
37.5 203.5 19.62
37.5 204.5 19.73
37.5 205.5 19.89
37.5 206.5 20.08
37.5 207.5 20.23
37.5 208.5 20.48
37.5 209.5 20.46
36.5 180.5 19.95
36.5 181.5 20
36.5 182.5 20.02
36.5 183.5 19.92
36.5 184.5 19.55
36.5 185.5 19.39
36.5 186.5 19.38
36.5 187.5 19.27
36.5 188.5 18.8
36.5 189.5 18.78
36.5 190.5 18.9
36.5 191.5 18.97
36.5 192.5 18.72
36.5 193.5 18.71
36.5 194.5 18.81
36.5 195.5 19
36.5 196.5 19.2
36.5 197.5 19.38
36.5 198.5 19.53
36.5 199.5 19.68
36.5 200.5 19.91
36.5 201.5 20.1
36.5 202.5 20.27
36.5 203.5 20.42
36.5 204.5 20.51
36.5 205.5 20.63
36.5 206.5 20.75
36.5 207.5 20.84
36.5 208.5 20.91
36.5 209.5 20.86
35.5 180.5 21.02
35.5 181.5 20.96
35.5 182.5 20.91
35.5 183.5 20.73
35.5 184.5 20.23
35.5 185.5 20.06
35.5 186.5 20.05
35.5 187.5 19.97
35.5 188.5 19.52
35.5 189.5 19.44
35.5 190.5 19.47
35.5 191.5 19.48
35.5 192.5 19.27
35.5 193.5 19.29
35.5 194.5 19.42
35.5 195.5 19.66
35.5 196.5 19.97
35.5 197.5 20.16
35.5 198.5 20.29
35.5 199.5 20.42
35.5 200.5 20.64
35.5 201.5 20.81
35.5 202.5 20.97
35.5 203.5 21.11
35.5 204.5 21.23
35.5 205.5 21.3
35.5 206.5 21.36
35.5 207.5 21.4
35.5 208.5 21.34
35.5 209.5 21.28
34.5 180.5 21.79
34.5 181.5 21.68
34.5 182.5 21.59
34.5 183.5 21.38
34.5 184.5 20.84
34.5 185.5 20.66
34.5 186.5 20.64
34.5 187.5 20.58
34.5 188.5 20.28
34.5 189.5 20.22
34.5 190.5 20.23
34.5 191.5 20.23
34.5 192.5 20.09
34.5 193.5 20.12
34.5 194.5 20.22
34.5 195.5 20.43
34.5 196.5 20.69
34.5 197.5 20.85
34.5 198.5 20.95
34.5 199.5 21.06
34.5 200.5 21.25
34.5 201.5 21.38
34.5 202.5 21.5
34.5 203.5 21.61
34.5 204.5 21.74
34.5 205.5 21.79
34.5 206.5 21.83
34.5 207.5 21.85
34.5 208.5 21.76
34.5 209.5 21.68
33.5 180.5 22.57
33.5 181.5 22.45
33.5 182.5 22.35
33.5 183.5 22.13
33.5 184.5 21.61
33.5 185.5 21.41
33.5 186.5 21.37
33.5 187.5 21.31
33.5 188.5 21.17
33.5 189.5 21.14
33.5 190.5 21.15
33.5 191.5 21.14
33.5 192.5 21.07
33.5 193.5 21.07
33.5 194.5 21.11
33.5 195.5 21.23
33.5 196.5 21.39
33.5 197.5 21.51
33.5 198.5 21.6
33.5 199.5 21.69
33.5 200.5 21.83
33.5 201.5 21.91
33.5 202.5 21.98
33.5 203.5 22.04
33.5 204.5 22.14
33.5 205.5 22.19
33.5 206.5 22.23
33.5 207.5 22.26
33.5 208.5 22.18
33.5 209.5 22.09
32.5 180.5 23.32
32.5 181.5 23.24
32.5 182.5 23.14
32.5 183.5 22.95
32.5 184.5 22.54
32.5 185.5 22.35
32.5 186.5 22.26
32.5 187.5 22.18
32.5 188.5 22.18
32.5 189.5 22.15
32.5 190.5 22.14
32.5 191.5 22.12
32.5 192.5 22.08
32.5 193.5 22.04
32.5 194.5 22.01
32.5 195.5 22.02
32.5 196.5 22.08
32.5 197.5 22.15
32.5 198.5 22.24
32.5 199.5 22.32
32.5 200.5 22.41
32.5 201.5 22.43
32.5 202.5 22.45
32.5 203.5 22.47
32.5 204.5 22.52
32.5 205.5 22.57
32.5 206.5 22.62
32.5 207.5 22.66
32.5 208.5 22.62
32.5 209.5 22.52
31.5 180.5 23.81
31.5 181.5 23.81
31.5 182.5 23.77
31.5 183.5 23.7
31.5 184.5 23.57
31.5 185.5 23.43
31.5 186.5 23.3
31.5 187.5 23.16
31.5 188.5 23.18
31.5 189.5 23.11
31.5 190.5 23.05
31.5 191.5 23.01
31.5 192.5 23
31.5 193.5 22.9
31.5 194.5 22.81
31.5 195.5 22.74
31.5 196.5 22.73
31.5 197.5 22.77
31.5 198.5 22.85
31.5 199.5 22.92
31.5 200.5 22.92
31.5 201.5 22.92
31.5 202.5 22.93
31.5 203.5 22.95
31.5 204.5 22.97
31.5 205.5 22.99
31.5 206.5 23.02
31.5 207.5 23.04
31.5 208.5 23.03
31.5 209.5 22.92
30.5 180.5 24.27
30.5 181.5 24.31
30.5 182.5 24.33
30.5 183.5 24.38
30.5 184.5 24.5
30.5 185.5 24.42
30.5 186.5 24.25
30.5 187.5 24.05
30.5 188.5 24.03
30.5 189.5 23.93
30.5 190.5 23.86
30.5 191.5 23.81
30.5 192.5 23.82
30.5 193.5 23.72
30.5 194.5 23.62
30.5 195.5 23.52
30.5 196.5 23.42
30.5 197.5 23.43
30.5 198.5 23.49
30.5 199.5 23.53
30.5 200.5 23.49
30.5 201.5 23.47
30.5 202.5 23.46
30.5 203.5 23.45
30.5 204.5 23.42
30.5 205.5 23.42
30.5 206.5 23.43
30.5 207.5 23.43
30.5 208.5 23.42
30.5 209.5 23.3
29.5 180.5 24.69
29.5 181.5 24.74
29.5 182.5 24.83
29.5 183.5 24.96
29.5 184.5 25.2
29.5 185.5 25.16
29.5 186.5 24.99
29.5 187.5 24.75
29.5 188.5 24.67
29.5 189.5 24.55
29.5 190.5 24.47
29.5 191.5 24.44
29.5 192.5 24.49
29.5 193.5 24.41
29.5 194.5 24.33
29.5 195.5 24.23
29.5 196.5 24.11
29.5 197.5 24.1
29.5 198.5 24.13
29.5 199.5 24.14
29.5 200.5 24.07
29.5 201.5 24.03
29.5 202.5 24
29.5 203.5 23.95
29.5 204.5 23.89
29.5 205.5 23.86
29.5 206.5 23.84
29.5 207.5 23.82
29.5 208.5 23.81
29.5 209.5 23.68
28.5 180.5 25.13
28.5 181.5 25.2
28.5 182.5 25.31
28.5 183.5 25.46
28.5 184.5 25.65
28.5 185.5 25.62
28.5 186.5 25.46
28.5 187.5 25.23
28.5 188.5 25.08
28.5 189.5 24.97
28.5 190.5 24.91
28.5 191.5 24.92
28.5 192.5 25.02
28.5 193.5 24.98
28.5 194.5 24.93
28.5 195.5 24.86
28.5 196.5 24.76
28.5 197.5 24.73
28.5 198.5 24.72
28.5 199.5 24.69
28.5 200.5 24.6
28.5 201.5 24.54
28.5 202.5 24.49
28.5 203.5 24.43
28.5 204.5 24.37
28.5 205.5 24.31
28.5 206.5 24.27
28.5 207.5 24.23
28.5 208.5 24.2
28.5 209.5 24.06
27.5 180.5 25.62
27.5 181.5 25.71
27.5 182.5 25.84
27.5 183.5 25.97
27.5 184.5 25.96
27.5 185.5 25.91
27.5 186.5 25.77
27.5 187.5 25.58
27.5 188.5 25.4
27.5 189.5 25.31
27.5 190.5 25.29
27.5 191.5 25.35
27.5 192.5 25.48
27.5 193.5 25.5
27.5 194.5 25.48
27.5 195.5 25.43
27.5 196.5 25.31
27.5 197.5 25.25
27.5 198.5 25.2
27.5 199.5 25.11
27.5 200.5 25.03
27.5 201.5 24.96
27.5 202.5 24.9
27.5 203.5 24.85
27.5 204.5 24.84
27.5 205.5 24.75
27.5 206.5 24.66
27.5 207.5 24.57
27.5 208.5 24.49
27.5 209.5 24.37
26.5 180.5 26.16
26.5 181.5 26.27
26.5 182.5 26.39
26.5 183.5 26.47
26.5 184.5 26.38
26.5 185.5 26.31
26.5 186.5 26.18
26.5 187.5 26
26.5 188.5 25.87
26.5 189.5 25.82
26.5 190.5 25.82
26.5 191.5 25.89
26.5 192.5 25.99
26.5 193.5 26.01
26.5 194.5 25.98
26.5 195.5 25.9
26.5 196.5 25.77
26.5 197.5 25.68
26.5 198.5 25.6
26.5 199.5 25.48
26.5 200.5 25.43
26.5 201.5 25.34
26.5 202.5 25.27
26.5 203.5 25.21
26.5 204.5 25.24
26.5 205.5 25.13
26.5 206.5 25
26.5 207.5 24.86
26.5 208.5 24.76
26.5 209.5 24.64
25.5 180.5 26.62
25.5 181.5 26.75
25.5 182.5 26.85
25.5 183.5 26.91
25.5 184.5 26.83
25.5 185.5 26.77
25.5 186.5 26.65
25.5 187.5 26.5
25.5 188.5 26.38
25.5 189.5 26.34
25.5 190.5 26.35
25.5 191.5 26.39
25.5 192.5 26.44
25.5 193.5 26.42
25.5 194.5 26.37
25.5 195.5 26.27
25.5 196.5 26.13
25.5 197.5 26.03
25.5 198.5 25.92
25.5 199.5 25.79
25.5 200.5 25.77
25.5 201.5 25.67
25.5 202.5 25.58
25.5 203.5 25.52
25.5 204.5 25.56
25.5 205.5 25.42
25.5 206.5 25.26
25.5 207.5 25.08
25.5 208.5 24.96
25.5 209.5 24.83
24.5 180.5 26.97
24.5 181.5 27.09
24.5 182.5 27.17
24.5 183.5 27.24
24.5 184.5 27.21
24.5 185.5 27.15
24.5 186.5 27.04
24.5 187.5 26.9
24.5 188.5 26.79
24.5 189.5 26.75
24.5 190.5 26.74
24.5 191.5 26.74
24.5 192.5 26.75
24.5 193.5 26.69
24.5 194.5 26.62
24.5 195.5 26.52
24.5 196.5 26.42
24.5 197.5 26.31
24.5 198.5 26.21
24.5 199.5 26.09
24.5 200.5 26.06
24.5 201.5 25.96
24.5 202.5 25.85
24.5 203.5 25.76
24.5 204.5 25.77
24.5 205.5 25.61
24.5 206.5 25.4
24.5 207.5 25.19
24.5 208.5 25.06
24.5 209.5 24.92
23.5 180.5 27.19
23.5 181.5 27.31
23.5 182.5 27.41
23.5 183.5 27.49
23.5 184.5 27.46
23.5 185.5 27.36
23.5 186.5 27.23
23.5 187.5 27.09
23.5 188.5 27.03
23.5 189.5 27.02
23.5 190.5 27.01
23.5 191.5 26.98
23.5 192.5 26.98
23.5 193.5 26.87
23.5 194.5 26.77
23.5 195.5 26.68
23.5 196.5 26.72
23.5 197.5 26.63
23.5 198.5 26.53
23.5 199.5 26.42
23.5 200.5 26.36
23.5 201.5 26.24
23.5 202.5 26.09
23.5 203.5 25.94
23.5 204.5 25.83
23.5 205.5 25.64
23.5 206.5 25.44
23.5 207.5 25.24
23.5 208.5 25.18
23.5 209.5 25.06
22.5 180.5 27.33
22.5 181.5 27.45
22.5 182.5 27.56
22.5 183.5 27.65
22.5 184.5 27.62
22.5 185.5 27.51
22.5 186.5 27.35
22.5 187.5 27.19
22.5 188.5 27.15
22.5 189.5 27.16
22.5 190.5 27.17
22.5 191.5 27.17
22.5 192.5 27.22
22.5 193.5 27.13
22.5 194.5 27.05
22.5 195.5 26.98
22.5 196.5 27.07
22.5 197.5 27.02
22.5 198.5 26.94
22.5 199.5 26.82
22.5 200.5 26.67
22.5 201.5 26.5
22.5 202.5 26.31
22.5 203.5 26.1
22.5 204.5 25.95
22.5 205.5 25.78
22.5 206.5 25.6
22.5 207.5 25.45
22.5 208.5 25.44
22.5 209.5 25.32
21.5 180.5 27.48
21.5 181.5 27.6
21.5 182.5 27.71
21.5 183.5 27.81
21.5 184.5 27.76
21.5 185.5 27.63
21.5 186.5 27.47
21.5 187.5 27.31
21.5 188.5 27.29
21.5 189.5 27.33
21.5 190.5 27.38
21.5 191.5 27.44
21.5 192.5 27.56
21.5 193.5 27.5
21.5 194.5 27.42
21.5 195.5 27.37
21.5 196.5 27.43
21.5 197.5 27.39
21.5 198.5 27.31
21.5 199.5 27.18
21.5 200.5 26.97
21.5 201.5 26.78
21.5 202.5 26.54
21.5 203.5 26.32
21.5 204.5 26.16
21.5 205.5 26
21.5 206.5 25.84
21.5 207.5 25.73
21.5 208.5 25.75
21.5 209.5 25.61
20.5 180.5 27.65
20.5 181.5 27.76
20.5 182.5 27.86
20.5 183.5 27.95
20.5 184.5 27.91
20.5 185.5 27.79
20.5 186.5 27.63
20.5 187.5 27.49
20.5 188.5 27.51
20.5 189.5 27.58
20.5 190.5 27.66
20.5 191.5 27.76
20.5 192.5 27.89
20.5 193.5 27.85
20.5 194.5 27.77
20.5 195.5 27.7
20.5 196.5 27.69
20.5 197.5 27.62
20.5 198.5 27.52
20.5 199.5 27.39
20.5 200.5 27.19
20.5 201.5 27
20.5 202.5 26.78
20.5 203.5 26.55
20.5 204.5 26.41
20.5 205.5 26.26
20.5 206.5 26.13
20.5 207.5 26.04
20.5 208.5 26.01
20.5 209.5 25.86
19.5 180.5 27.85
19.5 181.5 27.92
19.5 182.5 27.99
19.5 183.5 28.06
19.5 184.5 28.05
19.5 185.5 27.96
19.5 186.5 27.84
19.5 187.5 27.75
19.5 188.5 27.77
19.5 189.5 27.86
19.5 190.5 27.95
19.5 191.5 28.03
19.5 192.5 28.08
19.5 193.5 28.03
19.5 194.5 27.94
19.5 195.5 27.85
19.5 196.5 27.76
19.5 197.5 27.64
19.5 198.5 27.5
19.5 199.5 27.36
19.5 200.5 27.24
19.5 201.5 27.09
19.5 202.5 26.9
19.5 203.5 26.72
19.5 204.5 26.66
19.5 205.5 26.54
19.5 206.5 26.42
19.5 207.5 26.31
19.5 208.5 26.18
19.5 209.5 26
18.5 180.5 28.04
18.5 181.5 28.07
18.5 182.5 28.11
18.5 183.5 28.15
18.5 184.5 28.14
18.5 185.5 28.1
18.5 186.5 28.03
18.5 187.5 27.98
18.5 188.5 27.99
18.5 189.5 28.05
18.5 190.5 28.12
18.5 191.5 28.16
18.5 192.5 28.1
18.5 193.5 28.03
18.5 194.5 27.94
18.5 195.5 27.83
18.5 196.5 27.71
18.5 197.5 27.56
18.5 198.5 27.4
18.5 199.5 27.25
18.5 200.5 27.17
18.5 201.5 27.06
18.5 202.5 26.92
18.5 203.5 26.81
18.5 204.5 26.81
18.5 205.5 26.69
18.5 206.5 26.57
18.5 207.5 26.44
18.5 208.5 26.23
18.5 209.5 26.01
17.5 180.5 28.23
17.5 181.5 28.22
17.5 182.5 28.22
17.5 183.5 28.22
17.5 184.5 28.2
17.5 185.5 28.19
17.5 186.5 28.19
17.5 187.5 28.17
17.5 188.5 28.16
17.5 189.5 28.18
17.5 190.5 28.21
17.5 191.5 28.19
17.5 192.5 28.07
17.5 193.5 27.98
17.5 194.5 27.88
17.5 195.5 27.77
17.5 196.5 27.66
17.5 197.5 27.5
17.5 198.5 27.33
17.5 199.5 27.16
17.5 200.5 27.08
17.5 201.5 27
17.5 202.5 26.91
17.5 203.5 26.85
17.5 204.5 26.9
17.5 205.5 26.79
17.5 206.5 26.68
17.5 207.5 26.53
17.5 208.5 26.26
17.5 209.5 26.02
16.5 180.5 28.39
16.5 181.5 28.35
16.5 182.5 28.32
16.5 183.5 28.29
16.5 184.5 28.24
16.5 185.5 28.27
16.5 186.5 28.3
16.5 187.5 28.31
16.5 188.5 28.28
16.5 189.5 28.26
16.5 190.5 28.24
16.5 191.5 28.18
16.5 192.5 28.03
16.5 193.5 27.94
16.5 194.5 27.84
16.5 195.5 27.73
16.5 196.5 27.65
16.5 197.5 27.5
16.5 198.5 27.34
16.5 199.5 27.17
16.5 200.5 27.09
16.5 201.5 27.02
16.5 202.5 26.97
16.5 203.5 26.94
16.5 204.5 27
16.5 205.5 26.91
16.5 206.5 26.8
16.5 207.5 26.65
16.5 208.5 26.36
16.5 209.5 26.15
15.5 180.5 28.47
15.5 181.5 28.44
15.5 182.5 28.4
15.5 183.5 28.37
15.5 184.5 28.32
15.5 185.5 28.36
15.5 186.5 28.4
15.5 187.5 28.41
15.5 188.5 28.35
15.5 189.5 28.3
15.5 190.5 28.24
15.5 191.5 28.17
15.5 192.5 28.06
15.5 193.5 27.97
15.5 194.5 27.87
15.5 195.5 27.75
15.5 196.5 27.7
15.5 197.5 27.58
15.5 198.5 27.46
15.5 199.5 27.32
15.5 200.5 27.27
15.5 201.5 27.21
15.5 202.5 27.17
15.5 203.5 27.16
15.5 204.5 27.22
15.5 205.5 27.12
15.5 206.5 26.99
15.5 207.5 26.82
15.5 208.5 26.54
15.5 209.5 26.4
14.5 180.5 28.55
14.5 181.5 28.53
14.5 182.5 28.5
14.5 183.5 28.47
14.5 184.5 28.42
14.5 185.5 28.45
14.5 186.5 28.48
14.5 187.5 28.48
14.5 188.5 28.4
14.5 189.5 28.35
14.5 190.5 28.29
14.5 191.5 28.22
14.5 192.5 28.12
14.5 193.5 28.03
14.5 194.5 27.92
14.5 195.5 27.82
14.5 196.5 27.78
14.5 197.5 27.7
14.5 198.5 27.6
14.5 199.5 27.49
14.5 200.5 27.49
14.5 201.5 27.44
14.5 202.5 27.42
14.5 203.5 27.41
14.5 204.5 27.42
14.5 205.5 27.3
14.5 206.5 27.16
14.5 207.5 27
14.5 208.5 26.77
14.5 209.5 26.7
13.5 180.5 28.67
13.5 181.5 28.65
13.5 182.5 28.63
13.5 183.5 28.61
13.5 184.5 28.57
13.5 185.5 28.56
13.5 186.5 28.55
13.5 187.5 28.53
13.5 188.5 28.47
13.5 189.5 28.42
13.5 190.5 28.37
13.5 191.5 28.3
13.5 192.5 28.21
13.5 193.5 28.12
13.5 194.5 28.02
13.5 195.5 27.93
13.5 196.5 27.92
13.5 197.5 27.86
13.5 198.5 27.78
13.5 199.5 27.7
13.5 200.5 27.71
13.5 201.5 27.67
13.5 202.5 27.66
13.5 203.5 27.65
13.5 204.5 27.59
13.5 205.5 27.47
13.5 206.5 27.32
13.5 207.5 27.17
13.5 208.5 27.02
13.5 209.5 27.01
12.5 180.5 28.81
12.5 181.5 28.8
12.5 182.5 28.79
12.5 183.5 28.76
12.5 184.5 28.73
12.5 185.5 28.68
12.5 186.5 28.64
12.5 187.5 28.59
12.5 188.5 28.53
12.5 189.5 28.48
12.5 190.5 28.43
12.5 191.5 28.37
12.5 192.5 28.31
12.5 193.5 28.23
12.5 194.5 28.14
12.5 195.5 28.07
12.5 196.5 28.08
12.5 197.5 28.04
12.5 198.5 27.98
12.5 199.5 27.92
12.5 200.5 27.91
12.5 201.5 27.88
12.5 202.5 27.87
12.5 203.5 27.85
12.5 204.5 27.76
12.5 205.5 27.65
12.5 206.5 27.52
12.5 207.5 27.38
12.5 208.5 27.29
12.5 209.5 27.3
11.5 180.5 28.82
11.5 181.5 28.84
11.5 182.5 28.87
11.5 183.5 28.88
11.5 184.5 28.85
11.5 185.5 28.8
11.5 186.5 28.74
11.5 187.5 28.66
11.5 188.5 28.62
11.5 189.5 28.56
11.5 190.5 28.5
11.5 191.5 28.45
11.5 192.5 28.43
11.5 193.5 28.36
11.5 194.5 28.29
11.5 195.5 28.24
11.5 196.5 28.3
11.5 197.5 28.26
11.5 198.5 28.22
11.5 199.5 28.18
11.5 200.5 28.15
11.5 201.5 28.11
11.5 202.5 28.08
11.5 203.5 28.03
11.5 204.5 27.94
11.5 205.5 27.86
11.5 206.5 27.77
11.5 207.5 27.68
11.5 208.5 27.64
11.5 209.5 27.64
10.5 180.5 28.95
10.5 181.5 28.99
10.5 182.5 29.03
10.5 183.5 29.06
10.5 184.5 29.02
10.5 185.5 28.98
10.5 186.5 28.92
10.5 187.5 28.84
10.5 188.5 28.79
10.5 189.5 28.72
10.5 190.5 28.66
10.5 191.5 28.6
10.5 192.5 28.63
10.5 193.5 28.57
10.5 194.5 28.51
10.5 195.5 28.5
10.5 196.5 28.61
10.5 197.5 28.6
10.5 198.5 28.56
10.5 199.5 28.53
10.5 200.5 28.47
10.5 201.5 28.42
10.5 202.5 28.37
10.5 203.5 28.3
10.5 204.5 28.24
10.5 205.5 28.19
10.5 206.5 28.13
10.5 207.5 28.06
10.5 208.5 28.03
10.5 209.5 27.99
