39.5 180.5 12.09
39.5 181.5 12.08
39.5 182.5 12.05
39.5 183.5 12.09
39.5 184.5 11.97
39.5 185.5 11.87
39.5 186.5 11.66
39.5 187.5 11.48
39.5 188.5 11.05
39.5 189.5 11.04
39.5 190.5 10.94
39.5 191.5 10.88
39.5 192.5 10.7
39.5 193.5 10.66
39.5 194.5 10.55
39.5 195.5 10.45
39.5 196.5 10.44
39.5 197.5 10.33
39.5 198.5 10.23
39.5 199.5 10.18
39.5 200.5 10.1
39.5 201.5 10.09
39.5 202.5 10.08
39.5 203.5 10.12
39.5 204.5 10.27
39.5 205.5 10.21
39.5 206.5 10.1
39.5 207.5 10.11
39.5 208.5 10.39
39.5 209.5 10.52
38.5 180.5 13.34
38.5 181.5 13.32
38.5 182.5 13.3
38.5 183.5 13.3
38.5 184.5 12.96
38.5 185.5 12.79
38.5 186.5 12.55
38.5 187.5 12.35
38.5 188.5 11.81
38.5 189.5 11.84
38.5 190.5 11.77
38.5 191.5 11.74
38.5 192.5 11.62
38.5 193.5 11.57
38.5 194.5 11.47
38.5 195.5 11.37
38.5 196.5 11.38
38.5 197.5 11.24
38.5 198.5 11.12
38.5 199.5 11.07
38.5 200.5 11.02
38.5 201.5 10.99
38.5 202.5 10.97
38.5 203.5 10.97
38.5 204.5 11.05
38.5 205.5 10.99
38.5 206.5 10.88
38.5 207.5 10.88
38.5 208.5 11.13
38.5 209.5 11.26
37.5 180.5 14.28
37.5 181.5 14.2
37.5 182.5 14.17
37.5 183.5 14.13
37.5 184.5 13.65
37.5 185.5 13.41
37.5 186.5 13.16
37.5 187.5 12.96
37.5 188.5 12.37
37.5 189.5 12.41
37.5 190.5 12.38
37.5 191.5 12.39
37.5 192.5 12.32
37.5 193.5 12.3
37.5 194.5 12.22
37.5 195.5 12.14
37.5 196.5 12.16
37.5 197.5 12.04
37.5 198.5 11.93
37.5 199.5 11.89
37.5 200.5 11.84
37.5 201.5 11.82
37.5 202.5 11.78
37.5 203.5 11.77
37.5 204.5 11.78
37.5 205.5 11.73
37.5 206.5 11.64
37.5 207.5 11.66
37.5 208.5 11.91
37.5 209.5 12.04
36.5 180.5 14.92
36.5 181.5 14.74
36.5 182.5 14.72
36.5 183.5 14.68
36.5 184.5 14.18
36.5 185.5 13.89
36.5 186.5 13.62
36.5 187.5 13.41
36.5 188.5 12.82
36.5 189.5 12.88
36.5 190.5 12.88
36.5 191.5 12.94
36.5 192.5 12.87
36.5 193.5 12.89
36.5 194.5 12.85
36.5 195.5 12.81
36.5 196.5 12.82
36.5 197.5 12.74
36.5 198.5 12.66
36.5 199.5 12.64
36.5 200.5 12.58
36.5 201.5 12.56
36.5 202.5 12.52
36.5 203.5 12.51
36.5 204.5 12.51
36.5 205.5 12.49
36.5 206.5 12.43
36.5 207.5 12.48
36.5 208.5 12.74
36.5 209.5 12.87
35.5 180.5 15.33
35.5 181.5 15.2
35.5 182.5 15.31
35.5 183.5 15.39
35.5 184.5 14.92
35.5 185.5 14.62
35.5 186.5 14.32
35.5 187.5 14.06
35.5 188.5 13.6
35.5 189.5 13.57
35.5 190.5 13.54
35.5 191.5 13.59
35.5 192.5 13.54
35.5 193.5 13.57
35.5 194.5 13.56
35.5 195.5 13.55
35.5 196.5 13.56
35.5 197.5 13.53
35.5 198.5 13.49
35.5 199.5 13.48
35.5 200.5 13.44
35.5 201.5 13.4
35.5 202.5 13.33
35.5 203.5 13.31
35.5 204.5 13.33
35.5 205.5 13.35
35.5 206.5 13.34
35.5 207.5 13.43
35.5 208.5 13.67
35.5 209.5 13.78
34.5 180.5 15.67
34.5 181.5 15.57
34.5 182.5 15.75
34.5 183.5 15.91
34.5 184.5 15.82
34.5 185.5 15.53
34.5 186.5 15.2
34.5 187.5 14.9
34.5 188.5 14.37
34.5 189.5 14.35
34.5 190.5 14.38
34.5 191.5 14.47
34.5 192.5 14.4
34.5 193.5 14.45
34.5 194.5 14.47
34.5 195.5 14.48
34.5 196.5 14.48
34.5 197.5 14.47
34.5 198.5 14.45
34.5 199.5 14.44
34.5 200.5 14.36
34.5 201.5 14.31
34.5 202.5 14.26
34.5 203.5 14.28
34.5 204.5 14.38
34.5 205.5 14.44
34.5 206.5 14.46
34.5 207.5 14.56
34.5 208.5 14.76
34.5 209.5 14.81
33.5 180.5 15.99
33.5 181.5 15.98
33.5 182.5 16.21
33.5 183.5 16.43
33.5 184.5 16.61
33.5 185.5 16.34
33.5 186.5 15.99
33.5 187.5 15.66
33.5 188.5 15.11
33.5 189.5 15.13
33.5 190.5 15.23
33.5 191.5 15.36
33.5 192.5 15.31
33.5 193.5 15.38
33.5 194.5 15.42
33.5 195.5 15.43
33.5 196.5 15.41
33.5 197.5 15.41
33.5 198.5 15.4
33.5 199.5 15.38
33.5 200.5 15.28
33.5 201.5 15.23
33.5 202.5 15.21
33.5 203.5 15.27
33.5 204.5 15.4
33.5 205.5 15.49
33.5 206.5 15.53
33.5 207.5 15.6
33.5 208.5 15.72
33.5 209.5 15.73
32.5 180.5 16.4
32.5 181.5 16.51
32.5 182.5 16.77
32.5 183.5 17.01
32.5 184.5 17.28
32.5 185.5 17
32.5 186.5 16.62
32.5 187.5 16.29
32.5 188.5 15.82
32.5 189.5 15.9
32.5 190.5 16.06
32.5 191.5 16.23
32.5 192.5 16.23
32.5 193.5 16.31
32.5 194.5 16.36
32.5 195.5 16.35
32.5 196.5 16.31
32.5 197.5 16.29
32.5 198.5 16.3
32.5 199.5 16.31
32.5 200.5 16.21
32.5 201.5 16.18
32.5 202.5 16.19
32.5 203.5 16.25
32.5 204.5 16.33
32.5 205.5 16.42
32.5 206.5 16.47
32.5 207.5 16.51
32.5 208.5 16.53
32.5 209.5 16.49
31.5 180.5 16.95
31.5 181.5 17.12
31.5 182.5 17.34
31.5 183.5 17.5
31.5 184.5 17.64
31.5 185.5 17.39
31.5 186.5 17.08
31.5 187.5 16.82
31.5 188.5 16.66
31.5 189.5 16.77
31.5 190.5 16.97
31.5 191.5 17.15
31.5 192.5 17.21
31.5 193.5 17.32
31.5 194.5 17.39
31.5 195.5 17.39
31.5 196.5 17.35
31.5 197.5 17.33
31.5 198.5 17.37
31.5 199.5 17.41
31.5 200.5 17.33
31.5 201.5 17.3
31.5 202.5 17.3
31.5 203.5 17.31
31.5 204.5 17.28
31.5 205.5 17.36
31.5 206.5 17.43
31.5 207.5 17.47
31.5 208.5 17.36
31.5 209.5 17.29
30.5 180.5 17.38
30.5 181.5 17.48
30.5 182.5 17.62
30.5 183.5 17.69
30.5 184.5 17.79
30.5 185.5 17.58
30.5 186.5 17.39
30.5 187.5 17.33
30.5 188.5 17.39
30.5 189.5 17.63
30.5 190.5 17.91
30.5 191.5 18.15
30.5 192.5 18.24
30.5 193.5 18.41
30.5 194.5 18.54
30.5 195.5 18.58
30.5 196.5 18.53
30.5 197.5 18.52
30.5 198.5 18.59
30.5 199.5 18.63
30.5 200.5 18.45
30.5 201.5 18.44
30.5 202.5 18.46
30.5 203.5 18.44
30.5 204.5 18.26
30.5 205.5 18.29
30.5 206.5 18.37
30.5 207.5 18.43
30.5 208.5 18.37
30.5 209.5 18.3
29.5 180.5 18.03
29.5 181.5 18.02
29.5 182.5 18.06
29.5 183.5 18.03
29.5 184.5 18.09
29.5 185.5 17.97
29.5 186.5 17.94
29.5 187.5 18.08
29.5 188.5 18.26
29.5 189.5 18.56
29.5 190.5 18.85
29.5 191.5 19.1
29.5 192.5 19.21
29.5 193.5 19.45
29.5 194.5 19.65
29.5 195.5 19.76
29.5 196.5 19.72
29.5 197.5 19.72
29.5 198.5 19.8
29.5 199.5 19.82
29.5 200.5 19.5
29.5 201.5 19.5
29.5 202.5 19.55
29.5 203.5 19.52
29.5 204.5 19.24
29.5 205.5 19.24
29.5 206.5 19.32
29.5 207.5 19.4
29.5 208.5 19.38
29.5 209.5 19.32
28.5 180.5 18.91
28.5 181.5 18.83
28.5 182.5 18.79
28.5 183.5 18.7
28.5 184.5 18.78
28.5 185.5 18.77
28.5 186.5 18.9
28.5 187.5 19.18
28.5 188.5 19.29
28.5 189.5 19.54
28.5 190.5 19.76
28.5 191.5 19.95
28.5 192.5 20.01
28.5 193.5 20.31
28.5 194.5 20.57
28.5 195.5 20.76
28.5 196.5 20.72
28.5 197.5 20.72
28.5 198.5 20.79
28.5 199.5 20.77
28.5 200.5 20.36
28.5 201.5 20.37
28.5 202.5 20.44
28.5 203.5 20.41
28.5 204.5 20.13
28.5 205.5 20.12
28.5 206.5 20.23
28.5 207.5 20.34
28.5 208.5 20.31
28.5 209.5 20.24
27.5 180.5 20.12
27.5 181.5 20.01
27.5 182.5 19.96
27.5 183.5 19.85
27.5 184.5 19.98
27.5 185.5 20.03
27.5 186.5 20.24
27.5 187.5 20.5
27.5 188.5 20.44
27.5 189.5 20.52
27.5 190.5 20.61
27.5 191.5 20.68
27.5 192.5 20.68
27.5 193.5 21.03
27.5 194.5 21.38
27.5 195.5 21.67
27.5 196.5 21.64
27.5 197.5 21.59
27.5 198.5 21.6
27.5 199.5 21.52
27.5 200.5 21.1
27.5 201.5 21.08
27.5 202.5 21.1
27.5 203.5 21.05
27.5 204.5 20.85
27.5 205.5 20.9
27.5 206.5 21.07
27.5 207.5 21.23
27.5 208.5 21.18
27.5 209.5 21.11
26.5 180.5 21.21
26.5 181.5 21.16
26.5 182.5 21.15
26.5 183.5 21.07
26.5 184.5 21.08
26.5 185.5 21.15
26.5 186.5 21.35
26.5 187.5 21.54
26.5 188.5 21.32
26.5 189.5 21.29
26.5 190.5 21.28
26.5 191.5 21.27
26.5 192.5 21.32
26.5 193.5 21.66
26.5 194.5 22.03
26.5 195.5 22.34
26.5 196.5 22.38
26.5 197.5 22.29
26.5 198.5 22.23
26.5 199.5 22.11
26.5 200.5 21.66
26.5 201.5 21.63
26.5 202.5 21.66
26.5 203.5 21.63
26.5 204.5 21.52
26.5 205.5 21.62
26.5 206.5 21.79
26.5 207.5 21.93
26.5 208.5 21.87
26.5 209.5 21.75
25.5 180.5 22.27
25.5 181.5 22.31
25.5 182.5 22.35
25.5 183.5 22.31
25.5 184.5 22.18
25.5 185.5 22.2
25.5 186.5 22.34
25.5 187.5 22.42
25.5 188.5 22.13
25.5 189.5 22.03
25.5 190.5 21.96
25.5 191.5 21.93
25.5 192.5 22.07
25.5 193.5 22.38
25.5 194.5 22.72
25.5 195.5 23.01
25.5 196.5 23.12
25.5 197.5 22.99
25.5 198.5 22.86
25.5 199.5 22.7
25.5 200.5 22.28
25.5 201.5 22.25
25.5 202.5 22.26
25.5 203.5 22.26
25.5 204.5 22.21
25.5 205.5 22.32
25.5 206.5 22.48
25.5 207.5 22.59
25.5 208.5 22.5
25.5 209.5 22.33
24.5 180.5 23.17
24.5 181.5 23.26
24.5 182.5 23.36
24.5 183.5 23.37
24.5 184.5 23.15
24.5 185.5 23.09
24.5 186.5 23.12
24.5 187.5 23.08
24.5 188.5 22.81
24.5 189.5 22.71
24.5 190.5 22.66
24.5 191.5 22.68
24.5 192.5 22.97
24.5 193.5 23.23
24.5 194.5 23.48
24.5 195.5 23.71
24.5 196.5 23.83
24.5 197.5 23.69
24.5 198.5 23.52
24.5 199.5 23.36
24.5 200.5 23.06
24.5 201.5 23.01
24.5 202.5 22.99
24.5 203.5 22.97
24.5 204.5 22.93
24.5 205.5 23.03
24.5 206.5 23.15
24.5 207.5 23.22
24.5 208.5 23.08
24.5 209.5 22.86
23.5 180.5 23.71
23.5 181.5 23.85
23.5 182.5 24.02
23.5 183.5 24.11
23.5 184.5 23.94
23.5 185.5 23.84
23.5 186.5 23.76
23.5 187.5 23.59
23.5 188.5 23.41
23.5 189.5 23.33
23.5 190.5 23.35
23.5 191.5 23.5
23.5 192.5 23.88
23.5 193.5 24.1
23.5 194.5 24.24
23.5 195.5 24.34
23.5 196.5 24.43
23.5 197.5 24.35
23.5 198.5 24.24
23.5 199.5 24.17
23.5 200.5 24.06
23.5 201.5 23.93
23.5 202.5 23.78
23.5 203.5 23.63
23.5 204.5 23.57
23.5 205.5 23.6
23.5 206.5 23.64
23.5 207.5 23.63
23.5 208.5 23.48
23.5 209.5 23.27
22.5 180.5 24.2
22.5 181.5 24.32
22.5 182.5 24.5
22.5 183.5 24.61
22.5 184.5 24.49
22.5 185.5 24.41
22.5 186.5 24.31
22.5 187.5 24.12
22.5 188.5 24.04
22.5 189.5 24.01
22.5 190.5 24.06
22.5 191.5 24.24
22.5 192.5 24.56
22.5 193.5 24.71
22.5 194.5 24.74
22.5 195.5 24.73
22.5 196.5 24.73
22.5 197.5 24.68
22.5 198.5 24.61
22.5 199.5 24.61
22.5 200.5 24.67
22.5 201.5 24.55
22.5 202.5 24.37
22.5 203.5 24.19
22.5 204.5 24.06
22.5 205.5 24.01
22.5 206.5 23.95
22.5 207.5 23.85
22.5 208.5 23.66
22.5 209.5 23.44
21.5 180.5 24.75
21.5 181.5 24.84
21.5 182.5 24.98
21.5 183.5 25.08
21.5 184.5 25
21.5 185.5 24.97
21.5 186.5 24.9
21.5 187.5 24.74
21.5 188.5 24.71
21.5 189.5 24.7
21.5 190.5 24.76
21.5 191.5 24.9
21.5 192.5 25.08
21.5 193.5 25.13
21.5 194.5 25.09
21.5 195.5 25.01
21.5 196.5 24.98
21.5 197.5 24.95
21.5 198.5 24.93
21.5 199.5 24.98
21.5 200.5 25.12
21.5 201.5 25.01
21.5 202.5 24.83
21.5 203.5 24.6
21.5 204.5 24.39
21.5 205.5 24.25
21.5 206.5 24.1
21.5 207.5 23.94
21.5 208.5 23.75
21.5 209.5 23.55
20.5 180.5 25.36
20.5 181.5 25.42
20.5 182.5 25.5
20.5 183.5 25.55
20.5 184.5 25.48
20.5 185.5 25.49
20.5 186.5 25.46
20.5 187.5 25.35
20.5 188.5 25.33
20.5 189.5 25.32
20.5 190.5 25.36
20.5 191.5 25.44
20.5 192.5 25.53
20.5 193.5 25.5
20.5 194.5 25.42
20.5 195.5 25.31
20.5 196.5 25.29
20.5 197.5 25.28
20.5 198.5 25.29
20.5 199.5 25.35
20.5 200.5 25.46
20.5 201.5 25.34
20.5 202.5 25.12
20.5 203.5 24.87
20.5 204.5 24.62
20.5 205.5 24.41
20.5 206.5 24.2
20.5 207.5 24.02
20.5 208.5 23.87
20.5 209.5 23.7
19.5 180.5 25.93
19.5 181.5 25.94
19.5 182.5 25.95
19.5 183.5 25.93
19.5 184.5 25.8
19.5 185.5 25.83
19.5 186.5 25.85
19.5 187.5 25.8
19.5 188.5 25.8
19.5 189.5 25.79
19.5 190.5 25.8
19.5 191.5 25.83
19.5 192.5 25.93
19.5 193.5 25.9
19.5 194.5 25.83
19.5 195.5 25.76
19.5 196.5 25.72
19.5 197.5 25.71
19.5 198.5 25.7
19.5 199.5 25.69
19.5 200.5 25.67
19.5 201.5 25.51
19.5 202.5 25.27
19.5 203.5 25.01
19.5 204.5 24.84
19.5 205.5 24.59
19.5 206.5 24.35
19.5 207.5 24.16
19.5 208.5 24.05
19.5 209.5 23.89
18.5 180.5 26.29
18.5 181.5 26.27
18.5 182.5 26.23
18.5 183.5 26.17
18.5 184.5 26.05
18.5 185.5 26.07
18.5 186.5 26.11
18.5 187.5 26.09
18.5 188.5 26.1
18.5 189.5 26.09
18.5 190.5 26.09
18.5 191.5 26.11
18.5 192.5 26.19
18.5 193.5 26.15
18.5 194.5 26.1
18.5 195.5 26.03
18.5 196.5 25.95
18.5 197.5 25.91
18.5 198.5 25.86
18.5 199.5 25.77
18.5 200.5 25.64
18.5 201.5 25.47
18.5 202.5 25.25
18.5 203.5 25.04
18.5 204.5 25.01
18.5 205.5 24.82
18.5 206.5 24.61
18.5 207.5 24.43
18.5 208.5 24.3
18.5 209.5 24.12
17.5 180.5 26.44
17.5 181.5 26.39
17.5 182.5 26.33
17.5 183.5 26.25
17.5 184.5 26.2
17.5 185.5 26.23
17.5 186.5 26.28
17.5 187.5 26.28
17.5 188.5 26.29
17.5 189.5 26.29
17.5 190.5 26.29
17.5 191.5 26.3
17.5 192.5 26.33
17.5 193.5 26.28
17.5 194.5 26.23
17.5 195.5 26.16
17.5 196.5 26.05
17.5 197.5 25.97
17.5 198.5 25.86
17.5 199.5 25.72
17.5 200.5 25.56
17.5 201.5 25.4
17.5 202.5 25.23
17.5 203.5 25.09
17.5 204.5 25.15
17.5 205.5 25.03
17.5 206.5 24.87
17.5 207.5 24.71
17.5 208.5 24.55
17.5 209.5 24.35
16.5 180.5 26.43
16.5 181.5 26.36
16.5 182.5 26.31
16.5 183.5 26.26
16.5 184.5 26.32
16.5 185.5 26.38
16.5 186.5 26.43
16.5 187.5 26.45
16.5 188.5 26.46
16.5 189.5 26.47
16.5 190.5 26.47
16.5 191.5 26.46
16.5 192.5 26.43
16.5 193.5 26.36
16.5 194.5 26.3
16.5 195.5 26.21
16.5 196.5 26.08
16.5 197.5 25.96
16.5 198.5 25.81
16.5 199.5 25.66
16.5 200.5 25.54
16.5 201.5 25.42
16.5 202.5 25.31
16.5 203.5 25.24
16.5 204.5 25.33
16.5 205.5 25.25
16.5 206.5 25.13
16.5 207.5 24.98
16.5 208.5 24.8
16.5 209.5 24.61
15.5 180.5 26.43
15.5 181.5 26.39
15.5 182.5 26.38
15.5 183.5 26.4
15.5 184.5 26.49
15.5 185.5 26.56
15.5 186.5 26.62
15.5 187.5 26.65
15.5 188.5 26.67
15.5 189.5 26.68
15.5 190.5 26.68
15.5 191.5 26.68
15.5 192.5 26.63
15.5 193.5 26.54
15.5 194.5 26.43
15.5 195.5 26.29
15.5 196.5 26.13
15.5 197.5 25.98
15.5 198.5 25.82
15.5 199.5 25.69
15.5 200.5 25.68
15.5 201.5 25.6
15.5 202.5 25.5
15.5 203.5 25.46
15.5 204.5 25.51
15.5 205.5 25.45
15.5 206.5 25.33
15.5 207.5 25.18
15.5 208.5 25.01
15.5 209.5 24.85
14.5 180.5 26.57
14.5 181.5 26.55
14.5 182.5 26.55
14.5 183.5 26.58
14.5 184.5 26.7
14.5 185.5 26.77
14.5 186.5 26.81
14.5 187.5 26.84
14.5 188.5 26.84
14.5 189.5 26.84
14.5 190.5 26.84
14.5 191.5 26.85
14.5 192.5 26.79
14.5 193.5 26.71
14.5 194.5 26.58
14.5 195.5 26.42
14.5 196.5 26.24
14.5 197.5 26.09
14.5 198.5 25.92
14.5 199.5 25.79
14.5 200.5 25.83
14.5 201.5 25.76
14.5 202.5 25.69
14.5 203.5 25.67
14.5 204.5 25.68
14.5 205.5 25.63
14.5 206.5 25.53
14.5 207.5 25.39
14.5 208.5 25.25
14.5 209.5 25.13
13.5 180.5 26.78
13.5 181.5 26.76
13.5 182.5 26.76
13.5 183.5 26.79
13.5 184.5 26.89
13.5 185.5 26.94
13.5 186.5 26.97
13.5 187.5 26.98
13.5 188.5 26.97
13.5 189.5 26.96
13.5 190.5 26.96
13.5 191.5 26.97
13.5 192.5 26.95
13.5 193.5 26.89
13.5 194.5 26.78
13.5 195.5 26.61
13.5 196.5 26.43
13.5 197.5 26.28
13.5 198.5 26.12
13.5 199.5 25.99
13.5 200.5 25.99
13.5 201.5 25.92
13.5 202.5 25.86
13.5 203.5 25.84
13.5 204.5 25.81
13.5 205.5 25.77
13.5 206.5 25.7
13.5 207.5 25.59
13.5 208.5 25.52
13.5 209.5 25.45
12.5 180.5 27.01
12.5 181.5 27
12.5 182.5 27
12.5 183.5 27
12.5 184.5 27.05
12.5 185.5 27.08
12.5 186.5 27.08
12.5 187.5 27.08
12.5 188.5 27.09
12.5 189.5 27.06
12.5 190.5 27.04
12.5 191.5 27.06
12.5 192.5 27.06
12.5 193.5 27.03
12.5 194.5 26.94
12.5 195.5 26.81
12.5 196.5 26.66
12.5 197.5 26.53
12.5 198.5 26.38
12.5 199.5 26.25
12.5 200.5 26.2
12.5 201.5 26.11
12.5 202.5 26.04
12.5 203.5 25.99
12.5 204.5 25.92
12.5 205.5 25.9
12.5 206.5 25.87
12.5 207.5 25.83
12.5 208.5 25.84
12.5 209.5 25.84
11.5 180.5 27.35
11.5 181.5 27.32
11.5 182.5 27.27
11.5 183.5 27.23
11.5 184.5 27.25
11.5 185.5 27.24
11.5 186.5 27.23
11.5 187.5 27.21
11.5 188.5 27.23
11.5 189.5 27.2
11.5 190.5 27.17
11.5 191.5 27.18
11.5 192.5 27.15
11.5 193.5 27.12
11.5 194.5 27.06
11.5 195.5 26.98
11.5 196.5 26.93
11.5 197.5 26.85
11.5 198.5 26.76
11.5 199.5 26.67
11.5 200.5 26.56
11.5 201.5 26.44
11.5 202.5 26.33
11.5 203.5 26.23
11.5 204.5 26.1
11.5 205.5 26.09
11.5 206.5 26.11
11.5 207.5 26.17
11.5 208.5 26.29
11.5 209.5 26.35
10.5 180.5 27.68
10.5 181.5 27.63
10.5 182.5 27.57
10.5 183.5 27.51
10.5 184.5 27.48
10.5 185.5 27.47
10.5 186.5 27.45
10.5 187.5 27.42
10.5 188.5 27.43
10.5 189.5 27.39
10.5 190.5 27.34
10.5 191.5 27.31
10.5 192.5 27.25
10.5 193.5 27.22
10.5 194.5 27.18
10.5 195.5 27.12
10.5 196.5 27.13
10.5 197.5 27.09
10.5 198.5 27.03
10.5 199.5 26.97
10.5 200.5 26.91
10.5 201.5 26.8
10.5 202.5 26.68
10.5 203.5 26.57
10.5 204.5 26.44
10.5 205.5 26.44
10.5 206.5 26.49
10.5 207.5 26.59
10.5 208.5 26.74
10.5 209.5 26.81
