39.5 180.5 19.94
39.5 181.5 19.84
39.5 182.5 20.01
39.5 183.5 20.26
39.5 184.5 20
39.5 185.5 20.01
39.5 186.5 19.96
39.5 187.5 19.92
39.5 188.5 20.12
39.5 189.5 20.29
39.5 190.5 20.47
39.5 191.5 20.72
39.5 192.5 21.16
39.5 193.5 21.38
39.5 194.5 21.55
39.5 195.5 21.78
39.5 196.5 22.12
39.5 197.5 22.44
39.5 198.5 22.7
39.5 199.5 22.85
39.5 200.5 22.87
39.5 201.5 22.86
39.5 202.5 22.83
39.5 203.5 22.77
39.5 204.5 22.61
39.5 205.5 22.59
39.5 206.5 22.6
39.5 207.5 22.58
39.5 208.5 22.5
39.5 209.5 22.35
38.5 180.5 20.96
38.5 181.5 20.85
38.5 182.5 21.04
38.5 183.5 21.25
38.5 184.5 20.94
38.5 185.5 20.89
38.5 186.5 20.85
38.5 187.5 20.88
38.5 188.5 21.18
38.5 189.5 21.43
38.5 190.5 21.64
38.5 191.5 21.94
38.5 192.5 22.52
38.5 193.5 22.75
38.5 194.5 22.87
38.5 195.5 23.04
38.5 196.5 23.38
38.5 197.5 23.62
38.5 198.5 23.8
38.5 199.5 23.86
38.5 200.5 23.77
38.5 201.5 23.7
38.5 202.5 23.65
38.5 203.5 23.58
38.5 204.5 23.37
38.5 205.5 23.33
38.5 206.5 23.32
38.5 207.5 23.27
38.5 208.5 23.16
38.5 209.5 22.95
37.5 180.5 21.92
37.5 181.5 21.87
37.5 182.5 22.09
37.5 183.5 22.28
37.5 184.5 21.97
37.5 185.5 21.88
37.5 186.5 21.84
37.5 187.5 21.92
37.5 188.5 22.27
37.5 189.5 22.53
37.5 190.5 22.74
37.5 191.5 23.05
37.5 192.5 23.73
37.5 193.5 23.97
37.5 194.5 24.04
37.5 195.5 24.13
37.5 196.5 24.42
37.5 197.5 24.57
37.5 198.5 24.66
37.5 199.5 24.64
37.5 200.5 24.45
37.5 201.5 24.35
37.5 202.5 24.29
37.5 203.5 24.23
37.5 204.5 24.01
37.5 205.5 23.94
37.5 206.5 23.87
37.5 207.5 23.78
37.5 208.5 23.66
37.5 209.5 23.4
36.5 180.5 22.79
36.5 181.5 22.82
36.5 182.5 23.07
36.5 183.5 23.26
36.5 184.5 23.02
36.5 185.5 22.96
36.5 186.5 22.95
36.5 187.5 23.05
36.5 188.5 23.43
36.5 189.5 23.67
36.5 190.5 23.83
36.5 191.5 24.1
36.5 192.5 24.8
36.5 193.5 24.99
36.5 194.5 25.01
36.5 195.5 25.02
36.5 196.5 25.27
36.5 197.5 25.33
36.5 198.5 25.33
36.5 199.5 25.23
36.5 200.5 24.98
36.5 201.5 24.85
36.5 202.5 24.81
36.5 203.5 24.77
36.5 204.5 24.56
36.5 205.5 24.46
36.5 206.5 24.35
36.5 207.5 24.19
36.5 208.5 24.04
36.5 209.5 23.76
35.5 180.5 23.67
35.5 181.5 23.74
35.5 182.5 23.98
35.5 183.5 24.14
35.5 184.5 23.96
35.5 185.5 23.93
35.5 186.5 23.96
35.5 187.5 24.09
35.5 188.5 24.46
35.5 189.5 24.69
35.5 190.5 24.83
35.5 191.5 25.06
35.5 192.5 25.65
35.5 193.5 25.78
35.5 194.5 25.76
35.5 195.5 25.75
35.5 196.5 25.95
35.5 197.5 25.92
35.5 198.5 25.82
35.5 199.5 25.63
35.5 200.5 25.41
35.5 201.5 25.29
35.5 202.5 25.24
35.5 203.5 25.19
35.5 204.5 25.02
35.5 205.5 24.91
35.5 206.5 24.76
35.5 207.5 24.57
35.5 208.5 24.35
35.5 209.5 24.05
34.5 180.5 24.64
34.5 181.5 24.71
34.5 182.5 24.9
34.5 183.5 25.04
34.5 184.5 24.89
34.5 185.5 24.91
34.5 186.5 24.97
34.5 187.5 25.1
34.5 188.5 25.45
34.5 189.5 25.65
34.5 190.5 25.75
34.5 191.5 25.89
34.5 192.5 26.36
34.5 193.5 26.42
34.5 194.5 26.39
34.5 195.5 26.36
34.5 196.5 26.49
34.5 197.5 26.4
34.5 198.5 26.23
34.5 199.5 26
34.5 200.5 25.73
34.5 201.5 25.6
34.5 202.5 25.54
34.5 203.5 25.48
34.5 204.5 25.3
34.5 205.5 25.18
34.5 206.5 25.01
34.5 207.5 24.78
34.5 208.5 24.52
34.5 209.5 24.23
33.5 180.5 25.73
33.5 181.5 25.77
33.5 182.5 25.89
33.5 183.5 25.98
33.5 184.5 25.81
33.5 185.5 25.85
33.5 186.5 25.93
33.5 187.5 26.03
33.5 188.5 26.32
33.5 189.5 26.47
33.5 190.5 26.53
33.5 191.5 26.59
33.5 192.5 26.91
33.5 193.5 26.92
33.5 194.5 26.88
33.5 195.5 26.85
33.5 196.5 26.87
33.5 197.5 26.73
33.5 198.5 26.53
33.5 199.5 26.27
33.5 200.5 25.93
33.5 201.5 25.78
33.5 202.5 25.7
33.5 203.5 25.62
33.5 204.5 25.45
33.5 205.5 25.34
33.5 206.5 25.18
33.5 207.5 24.96
33.5 208.5 24.72
33.5 209.5 24.47
32.5 180.5 26.82
32.5 181.5 26.81
32.5 182.5 26.84
32.5 183.5 26.86
32.5 184.5 26.68
32.5 185.5 26.72
32.5 186.5 26.78
32.5 187.5 26.86
32.5 188.5 27.06
32.5 189.5 27.15
32.5 190.5 27.19
32.5 191.5 27.19
32.5 192.5 27.36
32.5 193.5 27.32
32.5 194.5 27.28
32.5 195.5 27.22
32.5 196.5 27.12
32.5 197.5 26.94
32.5 198.5 26.72
32.5 199.5 26.45
32.5 200.5 26.06
32.5 201.5 25.88
32.5 202.5 25.77
32.5 203.5 25.67
32.5 204.5 25.51
32.5 205.5 25.42
32.5 206.5 25.3
32.5 207.5 25.12
32.5 208.5 24.97
32.5 209.5 24.79
31.5 180.5 27.64
31.5 181.5 27.61
31.5 182.5 27.59
31.5 183.5 27.54
31.5 184.5 27.44
31.5 185.5 27.45
31.5 186.5 27.49
31.5 187.5 27.53
31.5 188.5 27.64
31.5 189.5 27.69
31.5 190.5 27.72
31.5 191.5 27.71
31.5 192.5 27.74
31.5 193.5 27.69
31.5 194.5 27.61
31.5 195.5 27.51
31.5 196.5 27.3
31.5 197.5 27.1
31.5 198.5 26.88
31.5 199.5 26.62
31.5 200.5 26.25
31.5 201.5 26.05
31.5 202.5 25.92
31.5 203.5 25.78
31.5 204.5 25.6
31.5 205.5 25.51
31.5 206.5 25.41
31.5 207.5 25.29
31.5 208.5 25.23
31.5 209.5 25.11
30.5 180.5 28.15
30.5 181.5 28.13
30.5 182.5 28.1
30.5 183.5 28.06
30.5 184.5 28.07
30.5 185.5 28.07
30.5 186.5 28.09
30.5 187.5 28.08
30.5 188.5 28.1
30.5 189.5 28.09
30.5 190.5 28.07
30.5 191.5 28.01
30.5 192.5 27.93
30.5 193.5 27.85
30.5 194.5 27.75
30.5 195.5 27.63
30.5 196.5 27.39
30.5 197.5 27.21
30.5 198.5 27.01
30.5 199.5 26.78
30.5 200.5 26.46
30.5 201.5 26.25
30.5 202.5 26.09
30.5 203.5 25.92
30.5 204.5 25.71
30.5 205.5 25.61
30.5 206.5 25.51
30.5 207.5 25.41
30.5 208.5 25.36
30.5 209.5 25.27
29.5 180.5 28.45
29.5 181.5 28.44
29.5 182.5 28.41
29.5 183.5 28.39
29.5 184.5 28.49
29.5 185.5 28.48
29.5 186.5 28.46
29.5 187.5 28.4
29.5 188.5 28.34
29.5 189.5 28.27
29.5 190.5 28.2
29.5 191.5 28.1
29.5 192.5 27.95
29.5 193.5 27.84
29.5 194.5 27.73
29.5 195.5 27.59
29.5 196.5 27.39
29.5 197.5 27.22
29.5 198.5 27.05
29.5 199.5 26.85
29.5 200.5 26.59
29.5 201.5 26.38
29.5 202.5 26.2
29.5 203.5 26.01
29.5 204.5 25.78
29.5 205.5 25.67
29.5 206.5 25.57
29.5 207.5 25.46
29.5 208.5 25.4
29.5 209.5 25.33
28.5 180.5 28.63
28.5 181.5 28.62
28.5 182.5 28.61
28.5 183.5 28.59
28.5 184.5 28.68
28.5 185.5 28.64
28.5 186.5 28.59
28.5 187.5 28.5
28.5 188.5 28.38
28.5 189.5 28.26
28.5 190.5 28.15
28.5 191.5 28.01
28.5 192.5 27.85
28.5 193.5 27.72
28.5 194.5 27.59
28.5 195.5 27.44
28.5 196.5 27.29
28.5 197.5 27.15
28.5 198.5 27.01
28.5 199.5 26.86
28.5 200.5 26.63
28.5 201.5 26.44
28.5 202.5 26.25
28.5 203.5 26.05
28.5 204.5 25.81
28.5 205.5 25.69
28.5 206.5 25.59
28.5 207.5 25.49
28.5 208.5 25.41
28.5 209.5 25.33
27.5 180.5 28.75
27.5 181.5 28.75
27.5 182.5 28.75
27.5 183.5 28.72
27.5 184.5 28.69
27.5 185.5 28.6
27.5 186.5 28.52
27.5 187.5 28.41
27.5 188.5 28.29
27.5 189.5 28.16
27.5 190.5 28.02
27.5 191.5 27.87
27.5 192.5 27.77
27.5 193.5 27.62
27.5 194.5 27.47
27.5 195.5 27.32
27.5 196.5 27.21
27.5 197.5 27.1
27.5 198.5 26.99
27.5 199.5 26.87
27.5 200.5 26.63
27.5 201.5 26.45
27.5 202.5 26.27
27.5 203.5 26.07
27.5 204.5 25.85
27.5 205.5 25.72
27.5 206.5 25.59
27.5 207.5 25.47
27.5 208.5 25.4
27.5 209.5 25.3
26.5 180.5 28.79
26.5 181.5 28.78
26.5 182.5 28.79
26.5 183.5 28.74
26.5 184.5 28.63
26.5 185.5 28.52
26.5 186.5 28.45
26.5 187.5 28.33
26.5 188.5 28.18
26.5 189.5 28.05
26.5 190.5 27.91
26.5 191.5 27.77
26.5 192.5 27.67
26.5 193.5 27.51
26.5 194.5 27.35
26.5 195.5 27.19
26.5 196.5 27.09
26.5 197.5 26.96
26.5 198.5 26.84
26.5 199.5 26.73
26.5 200.5 26.54
26.5 201.5 26.38
26.5 202.5 26.22
26.5 203.5 26.03
26.5 204.5 25.84
26.5 205.5 25.72
26.5 206.5 25.6
26.5 207.5 25.47
26.5 208.5 25.41
26.5 209.5 25.28
25.5 180.5 28.76
25.5 181.5 28.75
25.5 182.5 28.74
25.5 183.5 28.69
25.5 184.5 28.53
25.5 185.5 28.43
25.5 186.5 28.36
25.5 187.5 28.27
25.5 188.5 28.1
25.5 189.5 27.99
25.5 190.5 27.86
25.5 191.5 27.72
25.5 192.5 27.6
25.5 193.5 27.44
25.5 194.5 27.27
25.5 195.5 27.1
25.5 196.5 26.98
25.5 197.5 26.83
25.5 198.5 26.69
25.5 199.5 26.58
25.5 200.5 26.46
25.5 201.5 26.32
25.5 202.5 26.17
25.5 203.5 26.01
25.5 204.5 25.87
25.5 205.5 25.76
25.5 206.5 25.63
25.5 207.5 25.5
25.5 208.5 25.39
25.5 209.5 25.24
24.5 180.5 28.67
24.5 181.5 28.65
24.5 182.5 28.64
24.5 183.5 28.58
24.5 184.5 28.43
24.5 185.5 28.33
24.5 186.5 28.29
24.5 187.5 28.21
24.5 188.5 28.07
24.5 189.5 27.97
24.5 190.5 27.84
24.5 191.5 27.7
24.5 192.5 27.56
24.5 193.5 27.39
24.5 194.5 27.23
24.5 195.5 27.06
24.5 196.5 26.93
24.5 197.5 26.76
24.5 198.5 26.59
24.5 199.5 26.46
24.5 200.5 26.41
24.5 201.5 26.29
24.5 202.5 26.16
24.5 203.5 26.03
24.5 204.5 25.92
24.5 205.5 25.8
24.5 206.5 25.66
24.5 207.5 25.51
24.5 208.5 25.34
24.5 209.5 25.15
23.5 180.5 28.51
23.5 181.5 28.49
23.5 182.5 28.47
23.5 183.5 28.41
23.5 184.5 28.31
23.5 185.5 28.24
23.5 186.5 28.21
23.5 187.5 28.15
23.5 188.5 28.01
23.5 189.5 27.92
23.5 190.5 27.81
23.5 191.5 27.67
23.5 192.5 27.53
23.5 193.5 27.39
23.5 194.5 27.26
23.5 195.5 27.13
23.5 196.5 27.01
23.5 197.5 26.82
23.5 198.5 26.61
23.5 199.5 26.43
23.5 200.5 26.38
23.5 201.5 26.3
23.5 202.5 26.19
23.5 203.5 26.08
23.5 204.5 25.99
23.5 205.5 25.82
23.5 206.5 25.65
23.5 207.5 25.46
23.5 208.5 25.27
23.5 209.5 25.09
22.5 180.5 28.39
22.5 181.5 28.36
22.5 182.5 28.33
22.5 183.5 28.28
22.5 184.5 28.21
22.5 185.5 28.16
22.5 186.5 28.13
22.5 187.5 28.09
22.5 188.5 27.94
22.5 189.5 27.84
22.5 190.5 27.73
22.5 191.5 27.59
22.5 192.5 27.48
22.5 193.5 27.38
22.5 194.5 27.31
22.5 195.5 27.24
22.5 196.5 27.12
22.5 197.5 26.94
22.5 198.5 26.72
22.5 199.5 26.52
22.5 200.5 26.45
22.5 201.5 26.36
22.5 202.5 26.26
22.5 203.5 26.16
22.5 204.5 26.07
22.5 205.5 25.87
22.5 206.5 25.67
22.5 207.5 25.47
22.5 208.5 25.29
22.5 209.5 25.13
21.5 180.5 28.31
21.5 181.5 28.29
21.5 182.5 28.25
21.5 183.5 28.19
21.5 184.5 28.13
21.5 185.5 28.08
21.5 186.5 28.06
21.5 187.5 28.02
21.5 188.5 27.89
21.5 189.5 27.79
21.5 190.5 27.67
21.5 191.5 27.56
21.5 192.5 27.5
21.5 193.5 27.45
21.5 194.5 27.42
21.5 195.5 27.4
21.5 196.5 27.3
21.5 197.5 27.14
21.5 198.5 26.94
21.5 199.5 26.74
21.5 200.5 26.64
21.5 201.5 26.55
21.5 202.5 26.46
21.5 203.5 26.34
21.5 204.5 26.23
21.5 205.5 25.99
21.5 206.5 25.77
21.5 207.5 25.56
21.5 208.5 25.39
21.5 209.5 25.25
20.5 180.5 28.31
20.5 181.5 28.28
20.5 182.5 28.23
20.5 183.5 28.16
20.5 184.5 28.08
20.5 185.5 28.04
20.5 186.5 28.01
20.5 187.5 27.98
20.5 188.5 27.87
20.5 189.5 27.8
20.5 190.5 27.7
20.5 191.5 27.61
20.5 192.5 27.6
20.5 193.5 27.58
20.5 194.5 27.58
20.5 195.5 27.58
20.5 196.5 27.49
20.5 197.5 27.36
20.5 198.5 27.17
20.5 199.5 26.98
20.5 200.5 26.87
20.5 201.5 26.8
20.5 202.5 26.71
20.5 203.5 26.58
20.5 204.5 26.43
20.5 205.5 26.17
20.5 206.5 25.93
20.5 207.5 25.72
20.5 208.5 25.55
20.5 209.5 25.43
19.5 180.5 28.33
19.5 181.5 28.32
19.5 182.5 28.26
19.5 183.5 28.19
19.5 184.5 28.1
19.5 185.5 28.05
19.5 186.5 28.03
19.5 187.5 27.99
19.5 188.5 27.93
19.5 189.5 27.88
19.5 190.5 27.81
19.5 191.5 27.74
19.5 192.5 27.72
19.5 193.5 27.72
19.5 194.5 27.73
19.5 195.5 27.73
19.5 196.5 27.64
19.5 197.5 27.49
19.5 198.5 27.31
19.5 199.5 27.12
19.5 200.5 27.07
19.5 201.5 26.99
19.5 202.5 26.9
19.5 203.5 26.77
19.5 204.5 26.61
19.5 205.5 26.36
19.5 206.5 26.13
19.5 207.5 25.93
19.5 208.5 25.8
19.5 209.5 25.69
18.5 180.5 28.34
18.5 181.5 28.34
18.5 182.5 28.28
18.5 183.5 28.21
18.5 184.5 28.13
18.5 185.5 28.07
18.5 186.5 28.03
18.5 187.5 28.01
18.5 188.5 27.96
18.5 189.5 27.94
18.5 190.5 27.9
18.5 191.5 27.85
18.5 192.5 27.81
18.5 193.5 27.8
18.5 194.5 27.79
18.5 195.5 27.76
18.5 196.5 27.66
18.5 197.5 27.51
18.5 198.5 27.33
18.5 199.5 27.14
18.5 200.5 27.1
18.5 201.5 27.03
18.5 202.5 26.95
18.5 203.5 26.84
18.5 204.5 26.71
18.5 205.5 26.51
18.5 206.5 26.31
18.5 207.5 26.15
18.5 208.5 26.04
18.5 209.5 25.94
17.5 180.5 28.31
17.5 181.5 28.3
17.5 182.5 28.26
17.5 183.5 28.19
17.5 184.5 28.13
17.5 185.5 28.07
17.5 186.5 28.04
17.5 187.5 28.01
17.5 188.5 27.97
17.5 189.5 27.96
17.5 190.5 27.94
17.5 191.5 27.9
17.5 192.5 27.86
17.5 193.5 27.82
17.5 194.5 27.78
17.5 195.5 27.72
17.5 196.5 27.63
17.5 197.5 27.48
17.5 198.5 27.3
17.5 199.5 27.12
17.5 200.5 27.06
17.5 201.5 26.99
17.5 202.5 26.93
17.5 203.5 26.86
17.5 204.5 26.78
17.5 205.5 26.63
17.5 206.5 26.48
17.5 207.5 26.35
17.5 208.5 26.29
17.5 209.5 26.21
16.5 180.5 28.27
16.5 181.5 28.26
16.5 182.5 28.21
16.5 183.5 28.18
16.5 184.5 28.15
16.5 185.5 28.1
16.5 186.5 28.06
16.5 187.5 28.04
16.5 188.5 27.99
16.5 189.5 27.97
16.5 190.5 27.94
16.5 191.5 27.89
16.5 192.5 27.85
16.5 193.5 27.81
16.5 194.5 27.76
16.5 195.5 27.68
16.5 196.5 27.61
16.5 197.5 27.47
16.5 198.5 27.31
16.5 199.5 27.15
16.5 200.5 27.08
16.5 201.5 27.01
16.5 202.5 26.95
16.5 203.5 26.91
16.5 204.5 26.87
16.5 205.5 26.77
16.5 206.5 26.65
16.5 207.5 26.55
16.5 208.5 26.54
16.5 209.5 26.5
15.5 180.5 28.29
15.5 181.5 28.26
15.5 182.5 28.23
15.5 183.5 28.22
15.5 184.5 28.22
15.5 185.5 28.18
15.5 186.5 28.14
15.5 187.5 28.09
15.5 188.5 28.03
15.5 189.5 27.98
15.5 190.5 27.93
15.5 191.5 27.88
15.5 192.5 27.83
15.5 193.5 27.79
15.5 194.5 27.75
15.5 195.5 27.71
15.5 196.5 27.65
15.5 197.5 27.55
15.5 198.5 27.41
15.5 199.5 27.27
15.5 200.5 27.2
15.5 201.5 27.12
15.5 202.5 27.05
15.5 203.5 27.01
15.5 204.5 26.98
15.5 205.5 26.9
15.5 206.5 26.81
15.5 207.5 26.74
15.5 208.5 26.82
15.5 209.5 26.84
14.5 180.5 28.34
14.5 181.5 28.31
14.5 182.5 28.29
14.5 183.5 28.29
14.5 184.5 28.31
14.5 185.5 28.28
14.5 186.5 28.23
14.5 187.5 28.17
14.5 188.5 28.11
14.5 189.5 28.05
14.5 190.5 27.99
14.5 191.5 27.93
14.5 192.5 27.87
14.5 193.5 27.83
14.5 194.5 27.79
14.5 195.5 27.76
14.5 196.5 27.74
14.5 197.5 27.67
14.5 198.5 27.57
14.5 199.5 27.46
14.5 200.5 27.39
14.5 201.5 27.32
14.5 202.5 27.25
14.5 203.5 27.18
14.5 204.5 27.07
14.5 205.5 26.98
14.5 206.5 26.89
14.5 207.5 26.84
14.5 208.5 26.98
14.5 209.5 27.06
13.5 180.5 28.42
13.5 181.5 28.39
13.5 182.5 28.38
13.5 183.5 28.39
13.5 184.5 28.4
13.5 185.5 28.37
13.5 186.5 28.32
13.5 187.5 28.25
13.5 188.5 28.2
13.5 189.5 28.14
13.5 190.5 28.09
13.5 191.5 28.04
13.5 192.5 27.99
13.5 193.5 27.94
13.5 194.5 27.9
13.5 195.5 27.89
13.5 196.5 27.88
13.5 197.5 27.82
13.5 198.5 27.74
13.5 199.5 27.66
13.5 200.5 27.57
13.5 201.5 27.5
13.5 202.5 27.43
13.5 203.5 27.34
13.5 204.5 27.18
13.5 205.5 27.09
13.5 206.5 27.02
13.5 207.5 27.01
13.5 208.5 27.18
13.5 209.5 27.3
12.5 180.5 28.52
12.5 181.5 28.51
12.5 182.5 28.5
12.5 183.5 28.5
12.5 184.5 28.48
12.5 185.5 28.45
12.5 186.5 28.39
12.5 187.5 28.31
12.5 188.5 28.3
12.5 189.5 28.26
12.5 190.5 28.23
12.5 191.5 28.19
12.5 192.5 28.16
12.5 193.5 28.11
12.5 194.5 28.08
12.5 195.5 28.07
12.5 196.5 28.03
12.5 197.5 27.97
12.5 198.5 27.88
12.5 199.5 27.8
12.5 200.5 27.68
12.5 201.5 27.62
12.5 202.5 27.56
12.5 203.5 27.48
12.5 204.5 27.36
12.5 205.5 27.3
12.5 206.5 27.29
12.5 207.5 27.34
12.5 208.5 27.5
12.5 209.5 27.64
11.5 180.5 28.65
11.5 181.5 28.65
11.5 182.5 28.64
11.5 183.5 28.64
11.5 184.5 28.54
11.5 185.5 28.49
11.5 186.5 28.44
11.5 187.5 28.37
11.5 188.5 28.36
11.5 189.5 28.34
11.5 190.5 28.33
11.5 191.5 28.32
11.5 192.5 28.34
11.5 193.5 28.31
11.5 194.5 28.3
11.5 195.5 28.26
11.5 196.5 28.17
11.5 197.5 28.07
11.5 198.5 27.97
11.5 199.5 27.86
11.5 200.5 27.8
11.5 201.5 27.73
11.5 202.5 27.69
11.5 203.5 27.67
11.5 204.5 27.68
11.5 205.5 27.7
11.5 206.5 27.75
11.5 207.5 27.82
11.5 208.5 27.92
11.5 209.5 28
10.5 180.5 28.83
10.5 181.5 28.83
10.5 182.5 28.83
10.5 183.5 28.83
10.5 184.5 28.67
10.5 185.5 28.62
10.5 186.5 28.57
10.5 187.5 28.51
10.5 188.5 28.5
10.5 189.5 28.51
10.5 190.5 28.52
10.5 191.5 28.53
10.5 192.5 28.54
10.5 193.5 28.52
10.5 194.5 28.52
10.5 195.5 28.48
10.5 196.5 28.35
10.5 197.5 28.22
10.5 198.5 28.1
10.5 199.5 27.99
10.5 200.5 28.04
10.5 201.5 28
10.5 202.5 28
10.5 203.5 28.02
10.5 204.5 28.08
10.5 205.5 28.12
10.5 206.5 28.17
10.5 207.5 28.22
10.5 208.5 28.25
10.5 209.5 28.27
