39.5 180.5 10.83
39.5 181.5 10.79
39.5 182.5 10.69
39.5 183.5 10.7
39.5 184.5 11.26
39.5 185.5 11.17
39.5 186.5 10.81
39.5 187.5 10.53
39.5 188.5 10.79
39.5 189.5 10.7
39.5 190.5 10.54
39.5 191.5 10.41
39.5 192.5 10.45
39.5 193.5 10.51
39.5 194.5 10.58
39.5 195.5 10.52
39.5 196.5 10.22
39.5 197.5 9.99
39.5 198.5 9.85
39.5 199.5 9.79
39.5 200.5 9.89
39.5 201.5 9.92
39.5 202.5 9.94
39.5 203.5 10.02
39.5 204.5 10.29
39.5 205.5 10.29
39.5 206.5 10.24
39.5 207.5 10.31
39.5 208.5 10.65
39.5 209.5 10.86
38.5 180.5 11.75
38.5 181.5 11.74
38.5 182.5 11.71
38.5 183.5 11.79
38.5 184.5 12.3
38.5 185.5 12.2
38.5 186.5 11.83
38.5 187.5 11.56
38.5 188.5 11.87
38.5 189.5 11.74
38.5 190.5 11.51
38.5 191.5 11.3
38.5 192.5 11.28
38.5 193.5 11.3
38.5 194.5 11.35
38.5 195.5 11.27
38.5 196.5 10.91
38.5 197.5 10.68
38.5 198.5 10.55
38.5 199.5 10.5
38.5 200.5 10.63
38.5 201.5 10.65
38.5 202.5 10.64
38.5 203.5 10.69
38.5 204.5 10.96
38.5 205.5 11
38.5 206.5 10.99
38.5 207.5 11.07
38.5 208.5 11.39
38.5 209.5 11.57
37.5 180.5 12.67
37.5 181.5 12.63
37.5 182.5 12.65
37.5 183.5 12.75
37.5 184.5 13.11
37.5 185.5 12.99
37.5 186.5 12.65
37.5 187.5 12.4
37.5 188.5 12.66
37.5 189.5 12.48
37.5 190.5 12.14
37.5 191.5 11.82
37.5 192.5 11.77
37.5 193.5 11.75
37.5 194.5 11.79
37.5 195.5 11.72
37.5 196.5 11.43
37.5 197.5 11.24
37.5 198.5 11.15
37.5 199.5 11.14
37.5 200.5 11.27
37.5 201.5 11.28
37.5 202.5 11.25
37.5 203.5 11.29
37.5 204.5 11.55
37.5 205.5 11.64
37.5 206.5 11.69
37.5 207.5 11.8
37.5 208.5 12.13
37.5 209.5 12.3
36.5 180.5 13.58
36.5 181.5 13.48
36.5 182.5 13.5
36.5 183.5 13.59
36.5 184.5 13.73
36.5 185.5 13.57
36.5 186.5 13.25
36.5 187.5 13.04
36.5 188.5 13.19
36.5 189.5 12.93
36.5 190.5 12.5
36.5 191.5 12.09
36.5 192.5 12.03
36.5 193.5 12
36.5 194.5 12.04
36.5 195.5 12.01
36.5 196.5 11.84
36.5 197.5 11.71
36.5 198.5 11.68
36.5 199.5 11.72
36.5 200.5 11.84
36.5 201.5 11.85
36.5 202.5 11.83
36.5 203.5 11.87
36.5 204.5 12.13
36.5 205.5 12.26
36.5 206.5 12.37
36.5 207.5 12.51
36.5 208.5 12.87
36.5 209.5 13.05
35.5 180.5 14.26
35.5 181.5 14.12
35.5 182.5 14.19
35.5 183.5 14.27
35.5 184.5 14.2
35.5 185.5 14
35.5 186.5 13.72
35.5 187.5 13.55
35.5 188.5 13.59
35.5 189.5 13.32
35.5 190.5 12.85
35.5 191.5 12.43
35.5 192.5 12.31
35.5 193.5 12.28
35.5 194.5 12.34
35.5 195.5 12.35
35.5 196.5 12.29
35.5 197.5 12.2
35.5 198.5 12.21
35.5 199.5 12.27
35.5 200.5 12.44
35.5 201.5 12.5
35.5 202.5 12.53
35.5 203.5 12.62
35.5 204.5 12.96
35.5 205.5 13.09
35.5 206.5 13.17
35.5 207.5 13.31
35.5 208.5 13.63
35.5 209.5 13.8
34.5 180.5 14.91
34.5 181.5 14.81
34.5 182.5 14.88
34.5 183.5 14.91
34.5 184.5 14.63
34.5 185.5 14.39
34.5 186.5 14.13
34.5 187.5 13.99
34.5 188.5 13.99
34.5 189.5 13.73
34.5 190.5 13.3
34.5 191.5 12.94
34.5 192.5 12.88
34.5 193.5 12.89
34.5 194.5 12.98
34.5 195.5 13.02
34.5 196.5 12.93
34.5 197.5 12.86
34.5 198.5 12.87
34.5 199.5 12.94
34.5 200.5 13.15
34.5 201.5 13.23
34.5 202.5 13.3
34.5 203.5 13.44
34.5 204.5 13.84
34.5 205.5 13.98
34.5 206.5 14.07
34.5 207.5 14.2
34.5 208.5 14.55
34.5 209.5 14.73
33.5 180.5 15.5
33.5 181.5 15.49
33.5 182.5 15.59
33.5 183.5 15.6
33.5 184.5 15.21
33.5 185.5 14.96
33.5 186.5 14.74
33.5 187.5 14.61
33.5 188.5 14.51
33.5 189.5 14.27
33.5 190.5 13.93
33.5 191.5 13.68
33.5 192.5 13.68
33.5 193.5 13.74
33.5 194.5 13.85
33.5 195.5 13.92
33.5 196.5 13.8
33.5 197.5 13.74
33.5 198.5 13.73
33.5 199.5 13.76
33.5 200.5 13.94
33.5 201.5 14.01
33.5 202.5 14.08
33.5 203.5 14.25
33.5 204.5 14.69
33.5 205.5 14.84
33.5 206.5 14.94
33.5 207.5 15.08
33.5 208.5 15.42
33.5 209.5 15.58
32.5 180.5 16.09
32.5 181.5 16.17
32.5 182.5 16.32
32.5 183.5 16.37
32.5 184.5 15.98
32.5 185.5 15.77
32.5 186.5 15.6
32.5 187.5 15.46
32.5 188.5 15.27
32.5 189.5 15.05
32.5 190.5 14.79
32.5 191.5 14.61
32.5 192.5 14.64
32.5 193.5 14.7
32.5 194.5 14.82
32.5 195.5 14.92
32.5 196.5 14.83
32.5 197.5 14.78
32.5 198.5 14.74
32.5 199.5 14.69
32.5 200.5 14.79
32.5 201.5 14.81
32.5 202.5 14.87
32.5 203.5 15.05
32.5 204.5 15.49
32.5 205.5 15.65
32.5 206.5 15.74
32.5 207.5 15.89
32.5 208.5 16.21
32.5 209.5 16.34
31.5 180.5 16.91
31.5 181.5 17.02
31.5 182.5 17.21
31.5 183.5 17.28
31.5 184.5 16.95
31.5 185.5 16.77
31.5 186.5 16.63
31.5 187.5 16.5
31.5 188.5 16.35
31.5 189.5 16.18
31.5 190.5 15.95
31.5 191.5 15.76
31.5 192.5 15.76
31.5 193.5 15.71
31.5 194.5 15.75
31.5 195.5 15.85
31.5 196.5 15.87
31.5 197.5 15.86
31.5 198.5 15.82
31.5 199.5 15.78
31.5 200.5 15.77
31.5 201.5 15.75
31.5 202.5 15.77
31.5 203.5 15.91
31.5 204.5 16.3
31.5 205.5 16.46
31.5 206.5 16.57
31.5 207.5 16.72
31.5 208.5 17.01
31.5 209.5 17.12
30.5 180.5 17.74
30.5 181.5 17.82
30.5 182.5 17.98
30.5 183.5 18.05
30.5 184.5 17.83
30.5 185.5 17.67
30.5 186.5 17.55
30.5 187.5 17.44
30.5 188.5 17.41
30.5 189.5 17.29
30.5 190.5 17.1
30.5 191.5 16.91
30.5 192.5 16.9
30.5 193.5 16.75
30.5 194.5 16.71
30.5 195.5 16.77
30.5 196.5 16.89
30.5 197.5 16.9
30.5 198.5 16.87
30.5 199.5 16.85
30.5 200.5 16.83
30.5 201.5 16.81
30.5 202.5 16.78
30.5 203.5 16.85
30.5 204.5 17.1
30.5 205.5 17.28
30.5 206.5 17.41
30.5 207.5 17.59
30.5 208.5 17.86
30.5 209.5 17.96
29.5 180.5 18.69
29.5 181.5 18.7
29.5 182.5 18.77
29.5 183.5 18.77
29.5 184.5 18.56
29.5 185.5 18.38
29.5 186.5 18.26
29.5 187.5 18.19
29.5 188.5 18.34
29.5 189.5 18.29
29.5 190.5 18.17
29.5 191.5 18
29.5 192.5 18
29.5 193.5 17.81
29.5 194.5 17.7
29.5 195.5 17.7
29.5 196.5 17.85
29.5 197.5 17.87
29.5 198.5 17.85
29.5 199.5 17.9
29.5 200.5 17.96
29.5 201.5 17.96
29.5 202.5 17.89
29.5 203.5 17.88
29.5 204.5 17.99
29.5 205.5 18.13
29.5 206.5 18.27
29.5 207.5 18.47
29.5 208.5 18.74
29.5 209.5 18.83
28.5 180.5 19.76
28.5 181.5 19.7
28.5 182.5 19.68
28.5 183.5 19.58
28.5 184.5 19.29
28.5 185.5 19.08
28.5 186.5 18.95
28.5 187.5 18.92
28.5 188.5 19.15
28.5 189.5 19.16
28.5 190.5 19.09
28.5 191.5 18.98
28.5 192.5 19
28.5 193.5 18.8
28.5 194.5 18.64
28.5 195.5 18.58
28.5 196.5 18.78
28.5 197.5 18.78
28.5 198.5 18.79
28.5 199.5 18.9
28.5 200.5 19.08
28.5 201.5 19.09
28.5 202.5 19
28.5 203.5 18.91
28.5 204.5 18.93
28.5 205.5 19.03
28.5 206.5 19.15
28.5 207.5 19.33
28.5 208.5 19.61
28.5 209.5 19.7
27.5 180.5 20.84
27.5 181.5 20.8
27.5 182.5 20.76
27.5 183.5 20.59
27.5 184.5 20.2
27.5 185.5 19.99
27.5 186.5 19.91
27.5 187.5 19.92
27.5 188.5 20.05
27.5 189.5 20.01
27.5 190.5 19.92
27.5 191.5 19.81
27.5 192.5 19.86
27.5 193.5 19.68
27.5 194.5 19.47
27.5 195.5 19.38
27.5 196.5 19.7
27.5 197.5 19.7
27.5 198.5 19.68
27.5 199.5 19.8
27.5 200.5 20.15
27.5 201.5 20.17
27.5 202.5 20.07
27.5 203.5 19.96
27.5 204.5 19.98
27.5 205.5 19.99
27.5 206.5 20.03
27.5 207.5 20.15
27.5 208.5 20.48
27.5 209.5 20.58
26.5 180.5 21.84
26.5 181.5 21.81
26.5 182.5 21.75
26.5 183.5 21.58
26.5 184.5 21.27
26.5 185.5 21.13
26.5 186.5 21.1
26.5 187.5 21.11
26.5 188.5 21.01
26.5 189.5 20.9
26.5 190.5 20.77
26.5 191.5 20.61
26.5 192.5 20.54
26.5 193.5 20.39
26.5 194.5 20.24
26.5 195.5 20.22
26.5 196.5 20.68
26.5 197.5 20.7
26.5 198.5 20.66
26.5 199.5 20.73
26.5 200.5 21.11
26.5 201.5 21.12
26.5 202.5 21.01
26.5 203.5 20.88
26.5 204.5 20.91
26.5 205.5 20.87
26.5 206.5 20.88
26.5 207.5 20.96
26.5 208.5 21.28
26.5 209.5 21.34
25.5 180.5 22.74
25.5 181.5 22.72
25.5 182.5 22.65
25.5 183.5 22.51
25.5 184.5 22.34
25.5 185.5 22.28
25.5 186.5 22.3
25.5 187.5 22.33
25.5 188.5 22.11
25.5 189.5 21.93
25.5 190.5 21.73
25.5 191.5 21.49
25.5 192.5 21.27
25.5 193.5 21.14
25.5 194.5 21.05
25.5 195.5 21.12
25.5 196.5 21.64
25.5 197.5 21.69
25.5 198.5 21.63
25.5 199.5 21.64
25.5 200.5 21.95
25.5 201.5 21.94
25.5 202.5 21.83
25.5 203.5 21.7
25.5 204.5 21.77
25.5 205.5 21.73
25.5 206.5 21.72
25.5 207.5 21.77
25.5 208.5 22.04
25.5 209.5 22.05
24.5 180.5 23.42
24.5 181.5 23.4
24.5 182.5 23.33
24.5 183.5 23.2
24.5 184.5 23.13
24.5 185.5 23.14
24.5 186.5 23.22
24.5 187.5 23.29
24.5 188.5 23.11
24.5 189.5 22.9
24.5 190.5 22.65
24.5 191.5 22.35
24.5 192.5 22.08
24.5 193.5 21.97
24.5 194.5 21.94
24.5 195.5 22.07
24.5 196.5 22.52
24.5 197.5 22.56
24.5 198.5 22.47
24.5 199.5 22.41
24.5 200.5 22.61
24.5 201.5 22.58
24.5 202.5 22.49
24.5 203.5 22.41
24.5 204.5 22.57
24.5 205.5 22.56
24.5 206.5 22.55
24.5 207.5 22.56
24.5 208.5 22.73
24.5 209.5 22.69
23.5 180.5 23.72
23.5 181.5 23.71
23.5 182.5 23.66
23.5 183.5 23.59
23.5 184.5 23.54
23.5 185.5 23.59
23.5 186.5 23.72
23.5 187.5 23.85
23.5 188.5 23.85
23.5 189.5 23.66
23.5 190.5 23.4
23.5 191.5 23.11
23.5 192.5 22.98
23.5 193.5 22.93
23.5 194.5 22.93
23.5 195.5 23.02
23.5 196.5 23.28
23.5 197.5 23.28
23.5 198.5 23.19
23.5 199.5 23.08
23.5 200.5 23.11
23.5 201.5 23.07
23.5 202.5 23.03
23.5 203.5 23.06
23.5 204.5 23.31
23.5 205.5 23.33
23.5 206.5 23.28
23.5 207.5 23.2
23.5 208.5 23.25
23.5 209.5 23.18
22.5 180.5 24.1
22.5 181.5 24.06
22.5 182.5 24
22.5 183.5 23.93
22.5 184.5 23.87
22.5 185.5 23.93
22.5 186.5 24.05
22.5 187.5 24.21
22.5 188.5 24.32
22.5 189.5 24.22
22.5 190.5 24.04
22.5 191.5 23.83
22.5 192.5 23.76
22.5 193.5 23.73
22.5 194.5 23.74
22.5 195.5 23.78
22.5 196.5 23.86
22.5 197.5 23.84
22.5 198.5 23.77
22.5 199.5 23.66
22.5 200.5 23.61
22.5 201.5 23.57
22.5 202.5 23.55
22.5 203.5 23.61
22.5 204.5 23.84
22.5 205.5 23.87
22.5 206.5 23.79
22.5 207.5 23.66
22.5 208.5 23.59
22.5 209.5 23.49
21.5 180.5 24.54
21.5 181.5 24.49
21.5 182.5 24.43
21.5 183.5 24.37
21.5 184.5 24.35
21.5 185.5 24.4
21.5 186.5 24.49
21.5 187.5 24.63
21.5 188.5 24.75
21.5 189.5 24.72
21.5 190.5 24.62
21.5 191.5 24.49
21.5 192.5 24.43
21.5 193.5 24.41
21.5 194.5 24.4
21.5 195.5 24.39
21.5 196.5 24.37
21.5 197.5 24.33
21.5 198.5 24.29
21.5 199.5 24.2
21.5 200.5 24.12
21.5 201.5 24.09
21.5 202.5 24.09
21.5 203.5 24.14
21.5 204.5 24.26
21.5 205.5 24.25
21.5 206.5 24.15
21.5 207.5 23.98
21.5 208.5 23.82
21.5 209.5 23.71
20.5 180.5 25.05
20.5 181.5 25.01
20.5 182.5 24.96
20.5 183.5 24.94
20.5 184.5 24.96
20.5 185.5 25
20.5 186.5 25.05
20.5 187.5 25.13
20.5 188.5 25.17
20.5 189.5 25.17
20.5 190.5 25.12
20.5 191.5 25.04
20.5 192.5 24.95
20.5 193.5 24.92
20.5 194.5 24.89
20.5 195.5 24.85
20.5 196.5 24.8
20.5 197.5 24.77
20.5 198.5 24.75
20.5 199.5 24.7
20.5 200.5 24.61
20.5 201.5 24.59
20.5 202.5 24.6
20.5 203.5 24.61
20.5 204.5 24.59
20.5 205.5 24.53
20.5 206.5 24.39
20.5 207.5 24.19
20.5 208.5 23.99
20.5 209.5 23.89
19.5 180.5 25.57
19.5 181.5 25.54
19.5 182.5 25.51
19.5 183.5 25.49
19.5 184.5 25.47
19.5 185.5 25.5
19.5 186.5 25.54
19.5 187.5 25.57
19.5 188.5 25.55
19.5 189.5 25.53
19.5 190.5 25.49
19.5 191.5 25.41
19.5 192.5 25.33
19.5 193.5 25.27
19.5 194.5 25.22
19.5 195.5 25.16
19.5 196.5 25.14
19.5 197.5 25.11
19.5 198.5 25.11
19.5 199.5 25.09
19.5 200.5 25.01
19.5 201.5 24.99
19.5 202.5 24.99
19.5 203.5 24.96
19.5 204.5 24.84
19.5 205.5 24.72
19.5 206.5 24.54
19.5 207.5 24.31
19.5 208.5 24.11
19.5 209.5 24.05
18.5 180.5 25.96
18.5 181.5 25.93
18.5 182.5 25.89
18.5 183.5 25.86
18.5 184.5 25.8
18.5 185.5 25.79
18.5 186.5 25.78
18.5 187.5 25.76
18.5 188.5 25.72
18.5 189.5 25.67
18.5 190.5 25.62
18.5 191.5 25.55
18.5 192.5 25.5
18.5 193.5 25.45
18.5 194.5 25.41
18.5 195.5 25.38
18.5 196.5 25.37
18.5 197.5 25.35
18.5 198.5 25.33
18.5 199.5 25.28
18.5 200.5 25.16
18.5 201.5 25.12
18.5 202.5 25.09
18.5 203.5 25.05
18.5 204.5 24.9
18.5 205.5 24.78
18.5 206.5 24.62
18.5 207.5 24.43
18.5 208.5 24.29
18.5 209.5 24.25
17.5 180.5 26.16
17.5 181.5 26.12
17.5 182.5 26.08
17.5 183.5 26.03
17.5 184.5 25.93
17.5 185.5 25.88
17.5 186.5 25.84
17.5 187.5 25.79
17.5 188.5 25.76
17.5 189.5 25.7
17.5 190.5 25.64
17.5 191.5 25.58
17.5 192.5 25.56
17.5 193.5 25.53
17.5 194.5 25.52
17.5 195.5 25.51
17.5 196.5 25.5
17.5 197.5 25.46
17.5 198.5 25.41
17.5 199.5 25.33
17.5 200.5 25.17
17.5 201.5 25.1
17.5 202.5 25.04
17.5 203.5 24.99
17.5 204.5 24.87
17.5 205.5 24.8
17.5 206.5 24.7
17.5 207.5 24.58
17.5 208.5 24.49
17.5 209.5 24.48
16.5 180.5 26.21
16.5 181.5 26.19
16.5 182.5 26.14
16.5 183.5 26.07
16.5 184.5 25.97
16.5 185.5 25.9
16.5 186.5 25.83
16.5 187.5 25.77
16.5 188.5 25.76
16.5 189.5 25.71
16.5 190.5 25.66
16.5 191.5 25.62
16.5 192.5 25.62
16.5 193.5 25.61
16.5 194.5 25.61
16.5 195.5 25.61
16.5 196.5 25.57
16.5 197.5 25.5
16.5 198.5 25.42
16.5 199.5 25.31
16.5 200.5 25.13
16.5 201.5 25.05
16.5 202.5 24.99
16.5 203.5 24.95
16.5 204.5 24.88
16.5 205.5 24.88
16.5 206.5 24.84
16.5 207.5 24.78
16.5 208.5 24.75
16.5 209.5 24.74
15.5 180.5 26.29
15.5 181.5 26.26
15.5 182.5 26.2
15.5 183.5 26.11
15.5 184.5 26.01
15.5 185.5 25.95
15.5 186.5 25.89
15.5 187.5 25.85
15.5 188.5 25.83
15.5 189.5 25.8
15.5 190.5 25.77
15.5 191.5 25.75
15.5 192.5 25.78
15.5 193.5 25.78
15.5 194.5 25.77
15.5 195.5 25.75
15.5 196.5 25.64
15.5 197.5 25.55
15.5 198.5 25.44
15.5 199.5 25.32
15.5 200.5 25.14
15.5 201.5 25.08
15.5 202.5 25.05
15.5 203.5 25.06
15.5 204.5 25.07
15.5 205.5 25.12
15.5 206.5 25.12
15.5 207.5 25.09
15.5 208.5 25.07
15.5 209.5 25.05
14.5 180.5 26.41
14.5 181.5 26.39
14.5 182.5 26.33
14.5 183.5 26.23
14.5 184.5 26.12
14.5 185.5 26.05
14.5 186.5 25.99
14.5 187.5 25.94
14.5 188.5 25.94
14.5 189.5 25.92
14.5 190.5 25.9
14.5 191.5 25.9
14.5 192.5 25.93
14.5 193.5 25.93
14.5 194.5 25.92
14.5 195.5 25.87
14.5 196.5 25.72
14.5 197.5 25.61
14.5 198.5 25.52
14.5 199.5 25.41
14.5 200.5 25.25
14.5 201.5 25.22
14.5 202.5 25.24
14.5 203.5 25.29
14.5 204.5 25.36
14.5 205.5 25.44
14.5 206.5 25.46
14.5 207.5 25.43
14.5 208.5 25.38
14.5 209.5 25.32
13.5 180.5 26.54
13.5 181.5 26.51
13.5 182.5 26.44
13.5 183.5 26.34
13.5 184.5 26.23
13.5 185.5 26.16
13.5 186.5 26.09
13.5 187.5 26.06
13.5 188.5 26.09
13.5 189.5 26.06
13.5 190.5 26.04
13.5 191.5 26.03
13.5 192.5 26.05
13.5 193.5 26.05
13.5 194.5 26.02
13.5 195.5 25.95
13.5 196.5 25.79
13.5 197.5 25.7
13.5 198.5 25.63
13.5 199.5 25.56
13.5 200.5 25.45
13.5 201.5 25.46
13.5 202.5 25.53
13.5 203.5 25.63
13.5 204.5 25.73
13.5 205.5 25.8
13.5 206.5 25.82
13.5 207.5 25.75
13.5 208.5 25.65
13.5 209.5 25.56
12.5 180.5 26.66
12.5 181.5 26.61
12.5 182.5 26.53
12.5 183.5 26.42
12.5 184.5 26.34
12.5 185.5 26.28
12.5 186.5 26.23
12.5 187.5 26.22
12.5 188.5 26.26
12.5 189.5 26.23
12.5 190.5 26.19
12.5 191.5 26.17
12.5 192.5 26.15
12.5 193.5 26.14
12.5 194.5 26.11
12.5 195.5 26.04
12.5 196.5 25.91
12.5 197.5 25.85
12.5 198.5 25.8
12.5 199.5 25.76
12.5 200.5 25.74
12.5 201.5 25.79
12.5 202.5 25.9
12.5 203.5 26.04
12.5 204.5 26.14
12.5 205.5 26.2
12.5 206.5 26.17
12.5 207.5 26.06
12.5 208.5 25.91
12.5 209.5 25.8
11.5 180.5 26.78
11.5 181.5 26.68
11.5 182.5 26.57
11.5 183.5 26.46
11.5 184.5 26.45
11.5 185.5 26.43
11.5 186.5 26.4
11.5 187.5 26.4
11.5 188.5 26.42
11.5 189.5 26.4
11.5 190.5 26.36
11.5 191.5 26.34
11.5 192.5 26.33
11.5 193.5 26.31
11.5 194.5 26.29
11.5 195.5 26.23
11.5 196.5 26.16
11.5 197.5 26.11
11.5 198.5 26.08
11.5 199.5 26.05
11.5 200.5 26.12
11.5 201.5 26.21
11.5 202.5 26.35
11.5 203.5 26.52
11.5 204.5 26.6
11.5 205.5 26.62
11.5 206.5 26.56
11.5 207.5 26.41
11.5 208.5 26.22
11.5 209.5 26.08
10.5 180.5 26.94
10.5 181.5 26.83
10.5 182.5 26.71
10.5 183.5 26.61
10.5 184.5 26.61
10.5 185.5 26.6
10.5 186.5 26.59
10.5 187.5 26.6
10.5 188.5 26.62
10.5 189.5 26.6
10.5 190.5 26.56
10.5 191.5 26.54
10.5 192.5 26.57
10.5 193.5 26.57
10.5 194.5 26.58
10.5 195.5 26.55
10.5 196.5 26.52
10.5 197.5 26.48
10.5 198.5 26.44
10.5 199.5 26.4
10.5 200.5 26.5
10.5 201.5 26.58
10.5 202.5 26.72
10.5 203.5 26.89
10.5 204.5 26.98
10.5 205.5 26.99
10.5 206.5 26.91
10.5 207.5 26.76
10.5 208.5 26.53
10.5 209.5 26.38
