39.5 180.5 13.38
39.5 181.5 13.42
39.5 182.5 13.45
39.5 183.5 13.44
39.5 184.5 13.53
39.5 185.5 13.54
39.5 186.5 13.5
39.5 187.5 13.36
39.5 188.5 13.01
39.5 189.5 12.82
39.5 190.5 12.68
39.5 191.5 12.51
39.5 192.5 11.7
39.5 193.5 11.61
39.5 194.5 11.54
39.5 195.5 11.49
39.5 196.5 11.65
39.5 197.5 11.61
39.5 198.5 11.6
39.5 199.5 11.6
39.5 200.5 11.59
39.5 201.5 11.6
39.5 202.5 11.62
39.5 203.5 11.67
39.5 204.5 11.88
39.5 205.5 11.78
39.5 206.5 11.63
39.5 207.5 11.58
39.5 208.5 11.87
39.5 209.5 11.95
38.5 180.5 14.65
38.5 181.5 14.67
38.5 182.5 14.66
38.5 183.5 14.59
38.5 184.5 14.58
38.5 185.5 14.54
38.5 186.5 14.47
38.5 187.5 14.27
38.5 188.5 13.81
38.5 189.5 13.6
38.5 190.5 13.49
38.5 191.5 13.37
38.5 192.5 12.54
38.5 193.5 12.47
38.5 194.5 12.42
38.5 195.5 12.39
38.5 196.5 12.62
38.5 197.5 12.62
38.5 198.5 12.64
38.5 199.5 12.67
38.5 200.5 12.69
38.5 201.5 12.69
38.5 202.5 12.7
38.5 203.5 12.73
38.5 204.5 12.93
38.5 205.5 12.81
38.5 206.5 12.64
38.5 207.5 12.56
38.5 208.5 12.81
38.5 209.5 12.84
37.5 180.5 15.58
37.5 181.5 15.51
37.5 182.5 15.46
37.5 183.5 15.35
37.5 184.5 15.24
37.5 185.5 15.16
37.5 186.5 15.07
37.5 187.5 14.86
37.5 188.5 14.38
37.5 189.5 14.21
37.5 190.5 14.16
37.5 191.5 14.1
37.5 192.5 13.33
37.5 193.5 13.27
37.5 194.5 13.23
37.5 195.5 13.22
37.5 196.5 13.51
37.5 197.5 13.58
37.5 198.5 13.64
37.5 199.5 13.71
37.5 200.5 13.78
37.5 201.5 13.78
37.5 202.5 13.76
37.5 203.5 13.76
37.5 204.5 13.91
37.5 205.5 13.81
37.5 206.5 13.66
37.5 207.5 13.6
37.5 208.5 13.8
37.5 209.5 13.8
36.5 180.5 16.25
36.5 181.5 16.07
36.5 182.5 15.99
36.5 183.5 15.87
36.5 184.5 15.67
36.5 185.5 15.53
36.5 186.5 15.42
36.5 187.5 15.21
36.5 188.5 14.82
36.5 189.5 14.72
36.5 190.5 14.73
36.5 191.5 14.74
36.5 192.5 14.17
36.5 193.5 14.14
36.5 194.5 14.11
36.5 195.5 14.12
36.5 196.5 14.41
36.5 197.5 14.53
36.5 198.5 14.63
36.5 199.5 14.74
36.5 200.5 14.86
36.5 201.5 14.83
36.5 202.5 14.79
36.5 203.5 14.74
36.5 204.5 14.82
36.5 205.5 14.75
36.5 206.5 14.64
36.5 207.5 14.61
36.5 208.5 14.78
36.5 209.5 14.75
35.5 180.5 17.05
35.5 181.5 16.83
35.5 182.5 16.77
35.5 183.5 16.64
35.5 184.5 16.26
35.5 185.5 16.03
35.5 186.5 15.82
35.5 187.5 15.61
35.5 188.5 15.32
35.5 189.5 15.23
35.5 190.5 15.2
35.5 191.5 15.22
35.5 192.5 15.14
35.5 193.5 15.13
35.5 194.5 15.09
35.5 195.5 15.08
35.5 196.5 15.36
35.5 197.5 15.54
35.5 198.5 15.7
35.5 199.5 15.88
35.5 200.5 16.02
35.5 201.5 16.02
35.5 202.5 15.97
35.5 203.5 15.91
35.5 204.5 15.7
35.5 205.5 15.66
35.5 206.5 15.61
35.5 207.5 15.63
35.5 208.5 15.78
35.5 209.5 15.73
34.5 180.5 17.38
34.5 181.5 17.18
34.5 182.5 17.18
34.5 183.5 17.14
34.5 184.5 16.81
34.5 185.5 16.55
34.5 186.5 16.29
34.5 187.5 16.07
34.5 188.5 15.95
34.5 189.5 15.93
34.5 190.5 15.96
34.5 191.5 16.06
34.5 192.5 16.25
34.5 193.5 16.27
34.5 194.5 16.23
34.5 195.5 16.21
34.5 196.5 16.46
34.5 197.5 16.63
34.5 198.5 16.78
34.5 199.5 16.93
34.5 200.5 17
34.5 201.5 16.98
34.5 202.5 16.93
34.5 203.5 16.88
34.5 204.5 16.7
34.5 205.5 16.68
34.5 206.5 16.64
34.5 207.5 16.65
34.5 208.5 16.78
34.5 209.5 16.69
33.5 180.5 17.5
33.5 181.5 17.37
33.5 182.5 17.44
33.5 183.5 17.5
33.5 184.5 17.31
33.5 185.5 17.06
33.5 186.5 16.75
33.5 187.5 16.54
33.5 188.5 16.67
33.5 189.5 16.73
33.5 190.5 16.81
33.5 191.5 16.98
33.5 192.5 17.34
33.5 193.5 17.38
33.5 194.5 17.33
33.5 195.5 17.28
33.5 196.5 17.46
33.5 197.5 17.59
33.5 198.5 17.72
33.5 199.5 17.82
33.5 200.5 17.84
33.5 201.5 17.82
33.5 202.5 17.8
33.5 203.5 17.78
33.5 204.5 17.69
33.5 205.5 17.66
33.5 206.5 17.6
33.5 207.5 17.58
33.5 208.5 17.64
33.5 209.5 17.51
32.5 180.5 17.58
32.5 181.5 17.54
32.5 182.5 17.65
32.5 183.5 17.75
32.5 184.5 17.75
32.5 185.5 17.48
32.5 186.5 17.15
32.5 187.5 16.97
32.5 188.5 17.46
32.5 189.5 17.59
32.5 190.5 17.71
32.5 191.5 17.91
32.5 192.5 18.33
32.5 193.5 18.37
32.5 194.5 18.32
32.5 195.5 18.24
32.5 196.5 18.31
32.5 197.5 18.39
32.5 198.5 18.5
32.5 199.5 18.58
32.5 200.5 18.61
32.5 201.5 18.62
32.5 202.5 18.64
32.5 203.5 18.64
32.5 204.5 18.6
32.5 205.5 18.54
32.5 206.5 18.45
32.5 207.5 18.38
32.5 208.5 18.32
32.5 209.5 18.15
31.5 180.5 17.91
31.5 181.5 17.9
31.5 182.5 17.97
31.5 183.5 18.01
31.5 184.5 18.15
31.5 185.5 17.85
31.5 186.5 17.49
31.5 187.5 17.36
31.5 188.5 18.08
31.5 189.5 18.34
31.5 190.5 18.56
31.5 191.5 18.85
31.5 192.5 19.18
31.5 193.5 19.25
31.5 194.5 19.23
31.5 195.5 19.13
31.5 196.5 19.04
31.5 197.5 19.12
31.5 198.5 19.26
31.5 199.5 19.4
31.5 200.5 19.51
31.5 201.5 19.56
31.5 202.5 19.58
31.5 203.5 19.54
31.5 204.5 19.51
31.5 205.5 19.4
31.5 206.5 19.3
31.5 207.5 19.18
31.5 208.5 19.01
31.5 209.5 18.77
30.5 180.5 18.35
30.5 181.5 18.33
30.5 182.5 18.35
30.5 183.5 18.36
30.5 184.5 18.62
30.5 185.5 18.39
30.5 186.5 18.12
30.5 187.5 18.1
30.5 188.5 18.97
30.5 189.5 19.25
30.5 190.5 19.47
30.5 191.5 19.74
30.5 192.5 20.01
30.5 193.5 20.07
30.5 194.5 20.05
30.5 195.5 19.94
30.5 196.5 19.79
30.5 197.5 19.87
30.5 198.5 20.06
30.5 199.5 20.23
30.5 200.5 20.39
30.5 201.5 20.46
30.5 202.5 20.49
30.5 203.5 20.43
30.5 204.5 20.35
30.5 205.5 20.17
30.5 206.5 20.05
30.5 207.5 19.94
30.5 208.5 19.77
30.5 209.5 19.56
29.5 180.5 19.1
29.5 181.5 19.02
29.5 182.5 18.96
29.5 183.5 18.95
29.5 184.5 19.26
29.5 185.5 19.16
29.5 186.5 19.06
29.5 187.5 19.17
29.5 188.5 19.96
29.5 189.5 20.18
29.5 190.5 20.35
29.5 191.5 20.54
29.5 192.5 20.73
29.5 193.5 20.75
29.5 194.5 20.73
29.5 195.5 20.63
29.5 196.5 20.5
29.5 197.5 20.61
29.5 198.5 20.82
29.5 199.5 21
29.5 200.5 21.16
29.5 201.5 21.24
29.5 202.5 21.31
29.5 203.5 21.25
29.5 204.5 21.1
29.5 205.5 20.89
29.5 206.5 20.77
29.5 207.5 20.68
29.5 208.5 20.56
29.5 209.5 20.41
28.5 180.5 20.05
28.5 181.5 19.88
28.5 182.5 19.78
28.5 183.5 19.77
28.5 184.5 20.16
28.5 185.5 20.21
28.5 186.5 20.28
28.5 187.5 20.46
28.5 188.5 21.02
28.5 189.5 21.12
28.5 190.5 21.19
28.5 191.5 21.26
28.5 192.5 21.31
28.5 193.5 21.3
28.5 194.5 21.3
28.5 195.5 21.24
28.5 196.5 21.18
28.5 197.5 21.31
28.5 198.5 21.52
28.5 199.5 21.69
28.5 200.5 21.84
28.5 201.5 21.93
28.5 202.5 22.01
28.5 203.5 21.96
28.5 204.5 21.73
28.5 205.5 21.53
28.5 206.5 21.43
28.5 207.5 21.36
28.5 208.5 21.3
28.5 209.5 21.17
27.5 180.5 21.19
27.5 181.5 20.97
27.5 182.5 20.82
27.5 183.5 20.8
27.5 184.5 21.3
27.5 185.5 21.42
27.5 186.5 21.55
27.5 187.5 21.72
27.5 188.5 21.87
27.5 189.5 21.85
27.5 190.5 21.83
27.5 191.5 21.86
27.5 192.5 21.89
27.5 193.5 21.96
27.5 194.5 22.05
27.5 195.5 22.06
27.5 196.5 22.04
27.5 197.5 22.12
27.5 198.5 22.26
27.5 199.5 22.37
27.5 200.5 22.5
27.5 201.5 22.54
27.5 202.5 22.59
27.5 203.5 22.54
27.5 204.5 22.3
27.5 205.5 22.13
27.5 206.5 22.06
27.5 207.5 21.98
27.5 208.5 21.96
27.5 209.5 21.84
26.5 180.5 22.12
26.5 181.5 21.95
26.5 182.5 21.82
26.5 183.5 21.78
26.5 184.5 22.23
26.5 185.5 22.38
26.5 186.5 22.55
26.5 187.5 22.7
26.5 188.5 22.67
26.5 189.5 22.51
26.5 190.5 22.37
26.5 191.5 22.33
26.5 192.5 22.42
26.5 193.5 22.58
26.5 194.5 22.72
26.5 195.5 22.8
26.5 196.5 22.85
26.5 197.5 22.87
26.5 198.5 22.92
26.5 199.5 22.94
26.5 200.5 22.97
26.5 201.5 23
26.5 202.5 23.08
26.5 203.5 23.06
26.5 204.5 22.79
26.5 205.5 22.66
26.5 206.5 22.62
26.5 207.5 22.54
26.5 208.5 22.47
26.5 209.5 22.36
25.5 180.5 23.04
25.5 181.5 22.96
25.5 182.5 22.87
25.5 183.5 22.8
25.5 184.5 23.12
25.5 185.5 23.23
25.5 186.5 23.38
25.5 187.5 23.47
25.5 188.5 23.33
25.5 189.5 23.07
25.5 190.5 22.86
25.5 191.5 22.81
25.5 192.5 23.02
25.5 193.5 23.25
25.5 194.5 23.44
25.5 195.5 23.55
25.5 196.5 23.63
25.5 197.5 23.59
25.5 198.5 23.55
25.5 199.5 23.5
25.5 200.5 23.43
25.5 201.5 23.45
25.5 202.5 23.54
25.5 203.5 23.55
25.5 204.5 23.28
25.5 205.5 23.18
25.5 206.5 23.15
25.5 207.5 23.05
25.5 208.5 22.91
25.5 209.5 22.78
24.5 180.5 23.84
24.5 181.5 23.84
24.5 182.5 23.8
24.5 183.5 23.72
24.5 184.5 23.93
24.5 185.5 23.98
24.5 186.5 24.07
24.5 187.5 24.09
24.5 188.5 23.95
24.5 189.5 23.64
24.5 190.5 23.42
24.5 191.5 23.39
24.5 192.5 23.68
24.5 193.5 23.95
24.5 194.5 24.15
24.5 195.5 24.26
24.5 196.5 24.32
24.5 197.5 24.23
24.5 198.5 24.14
24.5 199.5 24.06
24.5 200.5 23.96
24.5 201.5 23.96
24.5 202.5 24.01
24.5 203.5 24.01
24.5 204.5 23.75
24.5 205.5 23.68
24.5 206.5 23.63
24.5 207.5 23.5
24.5 208.5 23.29
24.5 209.5 23.16
23.5 180.5 24.46
23.5 181.5 24.49
23.5 182.5 24.47
23.5 183.5 24.42
23.5 184.5 24.65
23.5 185.5 24.61
23.5 186.5 24.57
23.5 187.5 24.51
23.5 188.5 24.48
23.5 189.5 24.25
23.5 190.5 24.08
23.5 191.5 24.05
23.5 192.5 24.18
23.5 193.5 24.44
23.5 194.5 24.67
23.5 195.5 24.81
23.5 196.5 24.87
23.5 197.5 24.8
23.5 198.5 24.72
23.5 199.5 24.66
23.5 200.5 24.55
23.5 201.5 24.46
23.5 202.5 24.38
23.5 203.5 24.29
23.5 204.5 24.06
23.5 205.5 23.99
23.5 206.5 23.93
23.5 207.5 23.81
23.5 208.5 23.6
23.5 209.5 23.43
22.5 180.5 24.88
22.5 181.5 24.92
22.5 182.5 24.92
22.5 183.5 24.89
22.5 184.5 25.09
22.5 185.5 25.05
22.5 186.5 25
22.5 187.5 24.95
22.5 188.5 24.98
22.5 189.5 24.81
22.5 190.5 24.69
22.5 191.5 24.68
22.5 192.5 24.75
22.5 193.5 24.92
22.5 194.5 25.07
22.5 195.5 25.14
22.5 196.5 25.19
22.5 197.5 25.13
22.5 198.5 25.11
22.5 199.5 25.12
22.5 200.5 25.04
22.5 201.5 24.92
22.5 202.5 24.76
22.5 203.5 24.58
22.5 204.5 24.27
22.5 205.5 24.15
22.5 206.5 24.03
22.5 207.5 23.88
22.5 208.5 23.74
22.5 209.5 23.6
21.5 180.5 25.28
21.5 181.5 25.31
21.5 182.5 25.31
21.5 183.5 25.28
21.5 184.5 25.37
21.5 185.5 25.35
21.5 186.5 25.32
21.5 187.5 25.29
21.5 188.5 25.36
21.5 189.5 25.24
21.5 190.5 25.16
21.5 191.5 25.15
21.5 192.5 25.27
21.5 193.5 25.36
21.5 194.5 25.42
21.5 195.5 25.44
21.5 196.5 25.49
21.5 197.5 25.46
21.5 198.5 25.47
21.5 199.5 25.52
21.5 200.5 25.43
21.5 201.5 25.29
21.5 202.5 25.08
21.5 203.5 24.83
21.5 204.5 24.44
21.5 205.5 24.25
21.5 206.5 24.09
21.5 207.5 23.94
21.5 208.5 23.86
21.5 209.5 23.76
20.5 180.5 25.71
20.5 181.5 25.72
20.5 182.5 25.7
20.5 183.5 25.66
20.5 184.5 25.63
20.5 185.5 25.62
20.5 186.5 25.61
20.5 187.5 25.6
20.5 188.5 25.66
20.5 189.5 25.59
20.5 190.5 25.53
20.5 191.5 25.54
20.5 192.5 25.72
20.5 193.5 25.77
20.5 194.5 25.78
20.5 195.5 25.78
20.5 196.5 25.81
20.5 197.5 25.78
20.5 198.5 25.78
20.5 199.5 25.81
20.5 200.5 25.69
20.5 201.5 25.53
20.5 202.5 25.29
20.5 203.5 25.01
20.5 204.5 24.62
20.5 205.5 24.41
20.5 206.5 24.24
20.5 207.5 24.11
20.5 208.5 24.06
20.5 209.5 24
19.5 180.5 26.12
19.5 181.5 26.08
19.5 182.5 26.04
19.5 183.5 26
19.5 184.5 25.92
19.5 185.5 25.91
19.5 186.5 25.91
19.5 187.5 25.91
19.5 188.5 25.95
19.5 189.5 25.94
19.5 190.5 25.93
19.5 191.5 25.95
19.5 192.5 26.09
19.5 193.5 26.09
19.5 194.5 26.09
19.5 195.5 26.08
19.5 196.5 26.06
19.5 197.5 25.98
19.5 198.5 25.9
19.5 199.5 25.83
19.5 200.5 25.71
19.5 201.5 25.51
19.5 202.5 25.27
19.5 203.5 25.03
19.5 204.5 24.8
19.5 205.5 24.62
19.5 206.5 24.47
19.5 207.5 24.37
19.5 208.5 24.27
19.5 209.5 24.21
18.5 180.5 26.34
18.5 181.5 26.31
18.5 182.5 26.28
18.5 183.5 26.25
18.5 184.5 26.2
18.5 185.5 26.21
18.5 186.5 26.22
18.5 187.5 26.23
18.5 188.5 26.3
18.5 189.5 26.32
18.5 190.5 26.32
18.5 191.5 26.34
18.5 192.5 26.36
18.5 193.5 26.33
18.5 194.5 26.28
18.5 195.5 26.23
18.5 196.5 26.09
18.5 197.5 25.94
18.5 198.5 25.8
18.5 199.5 25.64
18.5 200.5 25.52
18.5 201.5 25.35
18.5 202.5 25.17
18.5 203.5 25.03
18.5 204.5 24.94
18.5 205.5 24.82
18.5 206.5 24.7
18.5 207.5 24.62
18.5 208.5 24.48
18.5 209.5 24.43
17.5 180.5 26.46
17.5 181.5 26.45
17.5 182.5 26.45
17.5 183.5 26.44
17.5 184.5 26.44
17.5 185.5 26.47
17.5 186.5 26.49
17.5 187.5 26.51
17.5 188.5 26.61
17.5 189.5 26.63
17.5 190.5 26.63
17.5 191.5 26.62
17.5 192.5 26.54
17.5 193.5 26.46
17.5 194.5 26.37
17.5 195.5 26.28
17.5 196.5 26.09
17.5 197.5 25.9
17.5 198.5 25.71
17.5 199.5 25.5
17.5 200.5 25.37
17.5 201.5 25.23
17.5 202.5 25.13
17.5 203.5 25.07
17.5 204.5 25.05
17.5 205.5 24.98
17.5 206.5 24.9
17.5 207.5 24.83
17.5 208.5 24.71
17.5 209.5 24.66
16.5 180.5 26.55
16.5 181.5 26.58
16.5 182.5 26.61
16.5 183.5 26.64
16.5 184.5 26.7
16.5 185.5 26.73
16.5 186.5 26.75
16.5 187.5 26.77
16.5 188.5 26.87
16.5 189.5 26.87
16.5 190.5 26.86
16.5 191.5 26.82
16.5 192.5 26.67
16.5 193.5 26.55
16.5 194.5 26.43
16.5 195.5 26.31
16.5 196.5 26.14
16.5 197.5 25.95
16.5 198.5 25.75
16.5 199.5 25.55
16.5 200.5 25.42
16.5 201.5 25.32
16.5 202.5 25.25
16.5 203.5 25.22
16.5 204.5 25.19
16.5 205.5 25.13
16.5 206.5 25.06
16.5 207.5 25.01
16.5 208.5 24.96
16.5 209.5 24.92
15.5 180.5 26.7
15.5 181.5 26.78
15.5 182.5 26.85
15.5 183.5 26.91
15.5 184.5 27
15.5 185.5 27.01
15.5 186.5 27.01
15.5 187.5 27.01
15.5 188.5 27.07
15.5 189.5 27.05
15.5 190.5 27
15.5 191.5 26.93
15.5 192.5 26.8
15.5 193.5 26.66
15.5 194.5 26.51
15.5 195.5 26.39
15.5 196.5 26.28
15.5 197.5 26.14
15.5 198.5 25.97
15.5 199.5 25.81
15.5 200.5 25.67
15.5 201.5 25.57
15.5 202.5 25.49
15.5 203.5 25.42
15.5 204.5 25.32
15.5 205.5 25.25
15.5 206.5 25.19
15.5 207.5 25.17
15.5 208.5 25.21
15.5 209.5 25.21
14.5 180.5 26.93
14.5 181.5 27.01
14.5 182.5 27.09
14.5 183.5 27.16
14.5 184.5 27.25
14.5 185.5 27.25
14.5 186.5 27.23
14.5 187.5 27.21
14.5 188.5 27.21
14.5 189.5 27.17
14.5 190.5 27.12
14.5 191.5 27.04
14.5 192.5 26.89
14.5 193.5 26.75
14.5 194.5 26.61
14.5 195.5 26.49
14.5 196.5 26.37
14.5 197.5 26.26
14.5 198.5 26.15
14.5 199.5 26.04
14.5 200.5 25.91
14.5 201.5 25.85
14.5 202.5 25.79
14.5 203.5 25.71
14.5 204.5 25.6
14.5 205.5 25.53
14.5 206.5 25.49
14.5 207.5 25.5
14.5 208.5 25.62
14.5 209.5 25.64
13.5 180.5 27.17
13.5 181.5 27.23
13.5 182.5 27.3
13.5 183.5 27.36
13.5 184.5 27.43
13.5 185.5 27.41
13.5 186.5 27.36
13.5 187.5 27.33
13.5 188.5 27.29
13.5 189.5 27.25
13.5 190.5 27.19
13.5 191.5 27.12
13.5 192.5 26.97
13.5 193.5 26.84
13.5 194.5 26.71
13.5 195.5 26.6
13.5 196.5 26.47
13.5 197.5 26.39
13.5 198.5 26.32
13.5 199.5 26.25
13.5 200.5 26.15
13.5 201.5 26.13
13.5 202.5 26.11
13.5 203.5 26.04
13.5 204.5 25.95
13.5 205.5 25.89
13.5 206.5 25.88
13.5 207.5 25.93
13.5 208.5 26.07
13.5 209.5 26.09
12.5 180.5 27.4
12.5 181.5 27.43
12.5 182.5 27.47
12.5 183.5 27.51
12.5 184.5 27.55
12.5 185.5 27.52
12.5 186.5 27.45
12.5 187.5 27.41
12.5 188.5 27.36
12.5 189.5 27.31
12.5 190.5 27.26
12.5 191.5 27.19
12.5 192.5 27.06
12.5 193.5 26.95
12.5 194.5 26.85
12.5 195.5 26.75
12.5 196.5 26.61
12.5 197.5 26.56
12.5 198.5 26.51
12.5 199.5 26.48
12.5 200.5 26.42
12.5 201.5 26.43
12.5 202.5 26.45
12.5 203.5 26.42
12.5 204.5 26.37
12.5 205.5 26.33
12.5 206.5 26.34
12.5 207.5 26.4
12.5 208.5 26.51
12.5 209.5 26.52
11.5 180.5 27.65
11.5 181.5 27.67
11.5 182.5 27.69
11.5 183.5 27.7
11.5 184.5 27.71
11.5 185.5 27.64
11.5 186.5 27.55
11.5 187.5 27.48
11.5 188.5 27.44
11.5 189.5 27.4
11.5 190.5 27.36
11.5 191.5 27.31
11.5 192.5 27.21
11.5 193.5 27.14
11.5 194.5 27.07
11.5 195.5 27
11.5 196.5 26.86
11.5 197.5 26.81
11.5 198.5 26.79
11.5 199.5 26.78
11.5 200.5 26.8
11.5 201.5 26.85
11.5 202.5 26.89
11.5 203.5 26.89
11.5 204.5 26.88
11.5 205.5 26.84
11.5 206.5 26.81
11.5 207.5 26.81
11.5 208.5 26.8
11.5 209.5 26.8
10.5 180.5 27.83
10.5 181.5 27.83
10.5 182.5 27.83
10.5 183.5 27.83
10.5 184.5 27.81
10.5 185.5 27.73
10.5 186.5 27.64
10.5 187.5 27.56
10.5 188.5 27.52
10.5 189.5 27.48
10.5 190.5 27.45
10.5 191.5 27.43
10.5 192.5 27.37
10.5 193.5 27.33
10.5 194.5 27.3
10.5 195.5 27.26
10.5 196.5 27.17
10.5 197.5 27.14
10.5 198.5 27.13
10.5 199.5 27.13
10.5 200.5 27.2
10.5 201.5 27.27
10.5 202.5 27.33
10.5 203.5 27.35
10.5 204.5 27.28
10.5 205.5 27.19
10.5 206.5 27.12
10.5 207.5 27.04
10.5 208.5 26.92
10.5 209.5 26.93
