39.5 180.5 19.17
39.5 181.5 19.21
39.5 182.5 19.49
39.5 183.5 19.81
39.5 184.5 19.95
39.5 185.5 20.12
39.5 186.5 20.29
39.5 187.5 20.48
39.5 188.5 20.96
39.5 189.5 21.24
39.5 190.5 21.5
39.5 191.5 21.83
39.5 192.5 22.23
39.5 193.5 22.46
39.5 194.5 22.6
39.5 195.5 22.78
39.5 196.5 22.88
39.5 197.5 23.11
39.5 198.5 23.26
39.5 199.5 23.31
39.5 200.5 23.19
39.5 201.5 23.19
39.5 202.5 23.16
39.5 203.5 23.1
39.5 204.5 22.95
39.5 205.5 22.88
39.5 206.5 22.84
39.5 207.5 22.76
39.5 208.5 22.61
39.5 209.5 22.45
38.5 180.5 20.21
38.5 181.5 20.27
38.5 182.5 20.6
38.5 183.5 20.93
38.5 184.5 20.98
38.5 185.5 21.11
38.5 186.5 21.28
38.5 187.5 21.53
38.5 188.5 21.89
38.5 189.5 22.17
38.5 190.5 22.4
38.5 191.5 22.71
38.5 192.5 23.12
38.5 193.5 23.34
38.5 194.5 23.42
38.5 195.5 23.54
38.5 196.5 23.72
38.5 197.5 23.89
38.5 198.5 23.99
38.5 199.5 23.98
38.5 200.5 23.79
38.5 201.5 23.74
38.5 202.5 23.71
38.5 203.5 23.65
38.5 204.5 23.49
38.5 205.5 23.42
38.5 206.5 23.37
38.5 207.5 23.28
38.5 208.5 23.16
38.5 209.5 22.93
37.5 180.5 21.16
37.5 181.5 21.28
37.5 182.5 21.65
37.5 183.5 21.99
37.5 184.5 21.98
37.5 185.5 22.08
37.5 186.5 22.25
37.5 187.5 22.53
37.5 188.5 22.77
37.5 189.5 22.98
37.5 190.5 23.14
37.5 191.5 23.4
37.5 192.5 23.83
37.5 193.5 24.03
37.5 194.5 24.05
37.5 195.5 24.09
37.5 196.5 24.33
37.5 197.5 24.44
37.5 198.5 24.47
37.5 199.5 24.41
37.5 200.5 24.22
37.5 201.5 24.13
37.5 202.5 24.1
37.5 203.5 24.05
37.5 204.5 23.92
37.5 205.5 23.84
37.5 206.5 23.76
37.5 207.5 23.66
37.5 208.5 23.54
37.5 209.5 23.28
36.5 180.5 22
36.5 181.5 22.17
36.5 182.5 22.58
36.5 183.5 22.92
36.5 184.5 22.92
36.5 185.5 23.03
36.5 186.5 23.21
36.5 187.5 23.5
36.5 188.5 23.67
36.5 189.5 23.81
36.5 190.5 23.86
36.5 191.5 24.03
36.5 192.5 24.44
36.5 193.5 24.58
36.5 194.5 24.54
36.5 195.5 24.52
36.5 196.5 24.79
36.5 197.5 24.84
36.5 198.5 24.82
36.5 199.5 24.72
36.5 200.5 24.55
36.5 201.5 24.45
36.5 202.5 24.43
36.5 203.5 24.41
36.5 204.5 24.31
36.5 205.5 24.22
36.5 206.5 24.11
36.5 207.5 23.97
36.5 208.5 23.82
36.5 209.5 23.54
35.5 180.5 22.78
35.5 181.5 22.97
35.5 182.5 23.33
35.5 183.5 23.64
35.5 184.5 23.73
35.5 185.5 23.83
35.5 186.5 24
35.5 187.5 24.26
35.5 188.5 24.48
35.5 189.5 24.56
35.5 190.5 24.55
35.5 191.5 24.64
35.5 192.5 25.05
35.5 193.5 25.11
35.5 194.5 25.02
35.5 195.5 24.97
35.5 196.5 25.21
35.5 197.5 25.21
35.5 198.5 25.14
35.5 199.5 25
35.5 200.5 24.87
35.5 201.5 24.8
35.5 202.5 24.79
35.5 203.5 24.8
35.5 204.5 24.67
35.5 205.5 24.59
35.5 206.5 24.47
35.5 207.5 24.31
35.5 208.5 24.1
35.5 209.5 23.8
34.5 180.5 23.61
34.5 181.5 23.78
34.5 182.5 24.1
34.5 183.5 24.38
34.5 184.5 24.57
34.5 185.5 24.69
34.5 186.5 24.86
34.5 187.5 25.09
34.5 188.5 25.33
34.5 189.5 25.38
34.5 190.5 25.34
34.5 191.5 25.35
34.5 192.5 25.59
34.5 193.5 25.58
34.5 194.5 25.47
34.5 195.5 25.4
34.5 196.5 25.55
34.5 197.5 25.5
34.5 198.5 25.39
34.5 199.5 25.23
34.5 200.5 25.08
34.5 201.5 25
34.5 202.5 24.99
34.5 203.5 24.99
34.5 204.5 24.89
34.5 205.5 24.79
34.5 206.5 24.65
34.5 207.5 24.46
34.5 208.5 24.23
34.5 209.5 23.94
33.5 180.5 24.69
33.5 181.5 24.81
33.5 182.5 25.04
33.5 183.5 25.25
33.5 184.5 25.43
33.5 185.5 25.54
33.5 186.5 25.69
33.5 187.5 25.87
33.5 188.5 26.09
33.5 189.5 26.1
33.5 190.5 26.03
33.5 191.5 25.98
33.5 192.5 26.07
33.5 193.5 26.01
33.5 194.5 25.89
33.5 195.5 25.81
33.5 196.5 25.82
33.5 197.5 25.74
33.5 198.5 25.61
33.5 199.5 25.43
33.5 200.5 25.23
33.5 201.5 25.12
33.5 202.5 25.09
33.5 203.5 25.08
33.5 204.5 24.99
33.5 205.5 24.89
33.5 206.5 24.76
33.5 207.5 24.58
33.5 208.5 24.38
33.5 209.5 24.12
32.5 180.5 25.91
32.5 181.5 25.96
32.5 182.5 26.09
32.5 183.5 26.2
32.5 184.5 26.3
32.5 185.5 26.36
32.5 186.5 26.46
32.5 187.5 26.58
32.5 188.5 26.73
32.5 189.5 26.71
32.5 190.5 26.63
32.5 191.5 26.55
32.5 192.5 26.53
32.5 193.5 26.42
32.5 194.5 26.3
32.5 195.5 26.19
32.5 196.5 26.07
32.5 197.5 25.96
32.5 198.5 25.81
32.5 199.5 25.63
32.5 200.5 25.37
32.5 201.5 25.23
32.5 202.5 25.17
32.5 203.5 25.13
32.5 204.5 25.03
32.5 205.5 24.95
32.5 206.5 24.84
32.5 207.5 24.7
32.5 208.5 24.57
32.5 209.5 24.37
31.5 180.5 27.18
31.5 181.5 27.16
31.5 182.5 27.16
31.5 183.5 27.15
31.5 184.5 27.09
31.5 185.5 27.11
31.5 186.5 27.15
31.5 187.5 27.19
31.5 188.5 27.21
31.5 189.5 27.17
31.5 190.5 27.1
31.5 191.5 27.03
31.5 192.5 26.93
31.5 193.5 26.83
31.5 194.5 26.7
31.5 195.5 26.56
31.5 196.5 26.34
31.5 197.5 26.2
31.5 198.5 26.06
31.5 199.5 25.9
31.5 200.5 25.66
31.5 201.5 25.5
31.5 202.5 25.41
31.5 203.5 25.32
31.5 204.5 25.15
31.5 205.5 25.04
31.5 206.5 24.92
31.5 207.5 24.79
31.5 208.5 24.7
31.5 209.5 24.56
30.5 180.5 27.76
30.5 181.5 27.74
30.5 182.5 27.71
30.5 183.5 27.71
30.5 184.5 27.72
30.5 185.5 27.72
30.5 186.5 27.72
30.5 187.5 27.69
30.5 188.5 27.62
30.5 189.5 27.52
30.5 190.5 27.42
30.5 191.5 27.31
30.5 192.5 27.15
30.5 193.5 27.02
30.5 194.5 26.89
30.5 195.5 26.74
30.5 196.5 26.53
30.5 197.5 26.41
30.5 198.5 26.3
30.5 199.5 26.18
30.5 200.5 25.98
30.5 201.5 25.8
30.5 202.5 25.68
30.5 203.5 25.54
30.5 204.5 25.26
30.5 205.5 25.12
30.5 206.5 24.99
30.5 207.5 24.86
30.5 208.5 24.74
30.5 209.5 24.62
29.5 180.5 28.07
29.5 181.5 28.05
29.5 182.5 28.02
29.5 183.5 28.03
29.5 184.5 28.12
29.5 185.5 28.1
29.5 186.5 28.05
29.5 187.5 27.97
29.5 188.5 27.84
29.5 189.5 27.69
29.5 190.5 27.56
29.5 191.5 27.41
29.5 192.5 27.23
29.5 193.5 27.09
29.5 194.5 26.96
29.5 195.5 26.81
29.5 196.5 26.66
29.5 197.5 26.56
29.5 198.5 26.48
29.5 199.5 26.4
29.5 200.5 26.23
29.5 201.5 26.05
29.5 202.5 25.89
29.5 203.5 25.71
29.5 204.5 25.37
29.5 205.5 25.21
29.5 206.5 25.06
29.5 207.5 24.92
29.5 208.5 24.76
29.5 209.5 24.66
28.5 180.5 28.23
28.5 181.5 28.21
28.5 182.5 28.19
28.5 183.5 28.19
28.5 184.5 28.29
28.5 185.5 28.24
28.5 186.5 28.16
28.5 187.5 28.04
28.5 188.5 27.89
28.5 189.5 27.72
28.5 190.5 27.56
28.5 191.5 27.4
28.5 192.5 27.25
28.5 193.5 27.1
28.5 194.5 26.96
28.5 195.5 26.82
28.5 196.5 26.72
28.5 197.5 26.65
28.5 198.5 26.6
28.5 199.5 26.54
28.5 200.5 26.37
28.5 201.5 26.2
28.5 202.5 26.01
28.5 203.5 25.81
28.5 204.5 25.46
28.5 205.5 25.29
28.5 206.5 25.14
28.5 207.5 25
28.5 208.5 24.83
28.5 209.5 24.73
27.5 180.5 28.34
27.5 181.5 28.33
27.5 182.5 28.32
27.5 183.5 28.31
27.5 184.5 28.35
27.5 185.5 28.25
27.5 186.5 28.15
27.5 187.5 28.03
27.5 188.5 27.88
27.5 189.5 27.72
27.5 190.5 27.56
27.5 191.5 27.4
27.5 192.5 27.29
27.5 193.5 27.14
27.5 194.5 26.99
27.5 195.5 26.86
27.5 196.5 26.79
27.5 197.5 26.73
27.5 198.5 26.69
27.5 199.5 26.64
27.5 200.5 26.42
27.5 201.5 26.24
27.5 202.5 26.05
27.5 203.5 25.85
27.5 204.5 25.56
27.5 205.5 25.38
27.5 206.5 25.23
27.5 207.5 25.08
27.5 208.5 24.97
27.5 209.5 24.87
26.5 180.5 28.44
26.5 181.5 28.42
26.5 182.5 28.43
26.5 183.5 28.41
26.5 184.5 28.38
26.5 185.5 28.27
26.5 186.5 28.17
26.5 187.5 28.04
26.5 188.5 27.9
26.5 189.5 27.76
26.5 190.5 27.61
26.5 191.5 27.46
26.5 192.5 27.38
26.5 193.5 27.22
26.5 194.5 27.07
26.5 195.5 26.92
26.5 196.5 26.84
26.5 197.5 26.77
26.5 198.5 26.71
26.5 199.5 26.66
26.5 200.5 26.44
26.5 201.5 26.28
26.5 202.5 26.1
26.5 203.5 25.9
26.5 204.5 25.68
26.5 205.5 25.53
26.5 206.5 25.4
26.5 207.5 25.26
26.5 208.5 25.19
26.5 209.5 25.06
25.5 180.5 28.48
25.5 181.5 28.47
25.5 182.5 28.48
25.5 183.5 28.46
25.5 184.5 28.4
25.5 185.5 28.28
25.5 186.5 28.19
25.5 187.5 28.08
25.5 188.5 27.96
25.5 189.5 27.84
25.5 190.5 27.71
25.5 191.5 27.57
25.5 192.5 27.48
25.5 193.5 27.32
25.5 194.5 27.16
25.5 195.5 27.01
25.5 196.5 26.91
25.5 197.5 26.81
25.5 198.5 26.72
25.5 199.5 26.66
25.5 200.5 26.5
25.5 201.5 26.35
25.5 202.5 26.18
25.5 203.5 25.99
25.5 204.5 25.84
25.5 205.5 25.73
25.5 206.5 25.6
25.5 207.5 25.47
25.5 208.5 25.37
25.5 209.5 25.21
24.5 180.5 28.46
24.5 181.5 28.46
24.5 182.5 28.47
24.5 183.5 28.45
24.5 184.5 28.4
24.5 185.5 28.29
24.5 186.5 28.22
24.5 187.5 28.13
24.5 188.5 28.02
24.5 189.5 27.92
24.5 190.5 27.81
24.5 191.5 27.68
24.5 192.5 27.56
24.5 193.5 27.4
24.5 194.5 27.25
24.5 195.5 27.11
24.5 196.5 27.01
24.5 197.5 26.88
24.5 198.5 26.75
24.5 199.5 26.66
24.5 200.5 26.57
24.5 201.5 26.44
24.5 202.5 26.28
24.5 203.5 26.12
24.5 204.5 26.01
24.5 205.5 25.9
24.5 206.5 25.77
24.5 207.5 25.63
24.5 208.5 25.46
24.5 209.5 25.27
23.5 180.5 28.37
23.5 181.5 28.37
23.5 182.5 28.39
23.5 183.5 28.37
23.5 184.5 28.33
23.5 185.5 28.25
23.5 186.5 28.21
23.5 187.5 28.13
23.5 188.5 28
23.5 189.5 27.92
23.5 190.5 27.84
23.5 191.5 27.72
23.5 192.5 27.59
23.5 193.5 27.46
23.5 194.5 27.35
23.5 195.5 27.24
23.5 196.5 27.18
23.5 197.5 27.03
23.5 198.5 26.87
23.5 199.5 26.73
23.5 200.5 26.65
23.5 201.5 26.54
23.5 202.5 26.4
23.5 203.5 26.25
23.5 204.5 26.16
23.5 205.5 26
23.5 206.5 25.82
23.5 207.5 25.64
23.5 208.5 25.46
23.5 209.5 25.25
22.5 180.5 28.26
22.5 181.5 28.27
22.5 182.5 28.28
22.5 183.5 28.28
22.5 184.5 28.26
22.5 185.5 28.21
22.5 186.5 28.17
22.5 187.5 28.11
22.5 188.5 27.99
22.5 189.5 27.93
22.5 190.5 27.85
22.5 191.5 27.75
22.5 192.5 27.67
22.5 193.5 27.58
22.5 194.5 27.51
22.5 195.5 27.45
22.5 196.5 27.39
22.5 197.5 27.25
22.5 198.5 27.07
22.5 199.5 26.91
22.5 200.5 26.82
22.5 201.5 26.7
22.5 202.5 26.56
22.5 203.5 26.41
22.5 204.5 26.31
22.5 205.5 26.12
22.5 206.5 25.92
22.5 207.5 25.72
22.5 208.5 25.54
22.5 209.5 25.35
21.5 180.5 28.2
21.5 181.5 28.22
21.5 182.5 28.23
21.5 183.5 28.22
21.5 184.5 28.2
21.5 185.5 28.16
21.5 186.5 28.14
21.5 187.5 28.1
21.5 188.5 28.01
21.5 189.5 27.95
21.5 190.5 27.88
21.5 191.5 27.82
21.5 192.5 27.8
21.5 193.5 27.75
21.5 194.5 27.72
21.5 195.5 27.68
21.5 196.5 27.62
21.5 197.5 27.5
21.5 198.5 27.34
21.5 199.5 27.18
21.5 200.5 27.06
21.5 201.5 26.94
21.5 202.5 26.8
21.5 203.5 26.63
21.5 204.5 26.5
21.5 205.5 26.28
21.5 206.5 26.05
21.5 207.5 25.84
21.5 208.5 25.67
21.5 209.5 25.51
20.5 180.5 28.21
20.5 181.5 28.23
20.5 182.5 28.23
20.5 183.5 28.21
20.5 184.5 28.17
20.5 185.5 28.14
20.5 186.5 28.13
20.5 187.5 28.09
20.5 188.5 28.05
20.5 189.5 28.02
20.5 190.5 27.97
20.5 191.5 27.93
20.5 192.5 27.95
20.5 193.5 27.93
20.5 194.5 27.91
20.5 195.5 27.89
20.5 196.5 27.82
20.5 197.5 27.72
20.5 198.5 27.57
20.5 199.5 27.41
20.5 200.5 27.3
20.5 201.5 27.18
20.5 202.5 27.04
20.5 203.5 26.85
20.5 204.5 26.68
20.5 205.5 26.43
20.5 206.5 26.19
20.5 207.5 25.98
20.5 208.5 25.83
20.5 209.5 25.69
19.5 180.5 28.28
19.5 181.5 28.3
19.5 182.5 28.28
19.5 183.5 28.24
19.5 184.5 28.19
19.5 185.5 28.17
19.5 186.5 28.16
19.5 187.5 28.14
19.5 188.5 28.12
19.5 189.5 28.11
19.5 190.5 28.09
19.5 191.5 28.06
19.5 192.5 28.05
19.5 193.5 28.04
19.5 194.5 28.02
19.5 195.5 27.98
19.5 196.5 27.89
19.5 197.5 27.76
19.5 198.5 27.6
19.5 199.5 27.44
19.5 200.5 27.4
19.5 201.5 27.29
19.5 202.5 27.15
19.5 203.5 26.98
19.5 204.5 26.79
19.5 205.5 26.55
19.5 206.5 26.32
19.5 207.5 26.13
19.5 208.5 26.04
19.5 209.5 25.92
18.5 180.5 28.35
18.5 181.5 28.37
18.5 182.5 28.35
18.5 183.5 28.3
18.5 184.5 28.24
18.5 185.5 28.2
18.5 186.5 28.18
18.5 187.5 28.17
18.5 188.5 28.16
18.5 189.5 28.17
18.5 190.5 28.16
18.5 191.5 28.14
18.5 192.5 28.09
18.5 193.5 28.06
18.5 194.5 28.03
18.5 195.5 27.96
18.5 196.5 27.84
18.5 197.5 27.7
18.5 198.5 27.53
18.5 199.5 27.36
18.5 200.5 27.33
18.5 201.5 27.23
18.5 202.5 27.11
18.5 203.5 26.97
18.5 204.5 26.83
18.5 205.5 26.63
18.5 206.5 26.44
18.5 207.5 26.3
18.5 208.5 26.23
18.5 209.5 26.11
17.5 180.5 28.4
17.5 181.5 28.41
17.5 182.5 28.38
17.5 183.5 28.33
17.5 184.5 28.27
17.5 185.5 28.23
17.5 186.5 28.2
17.5 187.5 28.18
17.5 188.5 28.16
17.5 189.5 28.17
17.5 190.5 28.16
17.5 191.5 28.14
17.5 192.5 28.08
17.5 193.5 28.04
17.5 194.5 27.98
17.5 195.5 27.89
17.5 196.5 27.77
17.5 197.5 27.61
17.5 198.5 27.43
17.5 199.5 27.26
17.5 200.5 27.2
17.5 201.5 27.11
17.5 202.5 27.02
17.5 203.5 26.93
17.5 204.5 26.84
17.5 205.5 26.7
17.5 206.5 26.57
17.5 207.5 26.48
17.5 208.5 26.42
17.5 209.5 26.32
16.5 180.5 28.43
16.5 181.5 28.44
16.5 182.5 28.41
16.5 183.5 28.37
16.5 184.5 28.31
16.5 185.5 28.27
16.5 186.5 28.23
16.5 187.5 28.2
16.5 188.5 28.16
16.5 189.5 28.14
16.5 190.5 28.12
16.5 191.5 28.09
16.5 192.5 28.03
16.5 193.5 27.99
16.5 194.5 27.93
16.5 195.5 27.85
16.5 196.5 27.73
16.5 197.5 27.58
16.5 198.5 27.4
16.5 199.5 27.23
16.5 200.5 27.15
16.5 201.5 27.06
16.5 202.5 26.99
16.5 203.5 26.93
16.5 204.5 26.89
16.5 205.5 26.8
16.5 206.5 26.71
16.5 207.5 26.67
16.5 208.5 26.64
16.5 209.5 26.56
15.5 180.5 28.5
15.5 181.5 28.5
15.5 182.5 28.48
15.5 183.5 28.45
15.5 184.5 28.38
15.5 185.5 28.33
15.5 186.5 28.27
15.5 187.5 28.21
15.5 188.5 28.15
15.5 189.5 28.13
15.5 190.5 28.09
15.5 191.5 28.06
15.5 192.5 28.04
15.5 193.5 28
15.5 194.5 27.96
15.5 195.5 27.9
15.5 196.5 27.82
15.5 197.5 27.68
15.5 198.5 27.52
15.5 199.5 27.36
15.5 200.5 27.25
15.5 201.5 27.16
15.5 202.5 27.08
15.5 203.5 27.04
15.5 204.5 27.01
15.5 205.5 26.95
15.5 206.5 26.9
15.5 207.5 26.9
15.5 208.5 26.94
15.5 209.5 26.91
14.5 180.5 28.53
14.5 181.5 28.53
14.5 182.5 28.52
14.5 183.5 28.51
14.5 184.5 28.45
14.5 185.5 28.41
14.5 186.5 28.35
14.5 187.5 28.28
14.5 188.5 28.22
14.5 189.5 28.19
14.5 190.5 28.15
14.5 191.5 28.11
14.5 192.5 28.09
14.5 193.5 28.05
14.5 194.5 27.99
14.5 195.5 27.94
14.5 196.5 27.88
14.5 197.5 27.79
14.5 198.5 27.67
14.5 199.5 27.54
14.5 200.5 27.43
14.5 201.5 27.35
14.5 202.5 27.27
14.5 203.5 27.2
14.5 204.5 27.12
14.5 205.5 27.06
14.5 206.5 27.01
14.5 207.5 27.03
14.5 208.5 27.14
14.5 209.5 27.18
13.5 180.5 28.54
13.5 181.5 28.55
13.5 182.5 28.55
13.5 183.5 28.56
13.5 184.5 28.51
13.5 185.5 28.48
13.5 186.5 28.42
13.5 187.5 28.35
13.5 188.5 28.33
13.5 189.5 28.3
13.5 190.5 28.27
13.5 191.5 28.24
13.5 192.5 28.21
13.5 193.5 28.14
13.5 194.5 28.08
13.5 195.5 28.02
13.5 196.5 27.97
13.5 197.5 27.9
13.5 198.5 27.81
13.5 199.5 27.72
13.5 200.5 27.62
13.5 201.5 27.54
13.5 202.5 27.46
13.5 203.5 27.37
13.5 204.5 27.26
13.5 205.5 27.19
13.5 206.5 27.16
13.5 207.5 27.21
13.5 208.5 27.35
13.5 209.5 27.45
12.5 180.5 28.56
12.5 181.5 28.58
12.5 182.5 28.58
12.5 183.5 28.59
12.5 184.5 28.56
12.5 185.5 28.53
12.5 186.5 28.48
12.5 187.5 28.43
12.5 188.5 28.45
12.5 189.5 28.44
12.5 190.5 28.43
12.5 191.5 28.41
12.5 192.5 28.36
12.5 193.5 28.28
12.5 194.5 28.21
12.5 195.5 28.14
12.5 196.5 28.06
12.5 197.5 28
12.5 198.5 27.92
12.5 199.5 27.83
12.5 200.5 27.76
12.5 201.5 27.68
12.5 202.5 27.62
12.5 203.5 27.55
12.5 204.5 27.45
12.5 205.5 27.41
12.5 206.5 27.42
12.5 207.5 27.49
12.5 208.5 27.63
12.5 209.5 27.76
11.5 180.5 28.56
11.5 181.5 28.58
11.5 182.5 28.6
11.5 183.5 28.62
11.5 184.5 28.62
11.5 185.5 28.59
11.5 186.5 28.56
11.5 187.5 28.52
11.5 188.5 28.56
11.5 189.5 28.56
11.5 190.5 28.57
11.5 191.5 28.57
11.5 192.5 28.5
11.5 193.5 28.41
11.5 194.5 28.33
11.5 195.5 28.22
11.5 196.5 28.11
11.5 197.5 28.04
11.5 198.5 27.96
11.5 199.5 27.89
11.5 200.5 27.88
11.5 201.5 27.82
11.5 202.5 27.79
11.5 203.5 27.78
11.5 204.5 27.75
11.5 205.5 27.76
11.5 206.5 27.8
11.5 207.5 27.86
11.5 208.5 27.93
11.5 209.5 28.03
10.5 180.5 28.66
10.5 181.5 28.69
10.5 182.5 28.72
10.5 183.5 28.74
10.5 184.5 28.74
10.5 185.5 28.71
10.5 186.5 28.7
10.5 187.5 28.69
10.5 188.5 28.73
10.5 189.5 28.75
10.5 190.5 28.77
10.5 191.5 28.77
10.5 192.5 28.66
10.5 193.5 28.58
10.5 194.5 28.5
10.5 195.5 28.4
10.5 196.5 28.27
10.5 197.5 28.17
10.5 198.5 28.09
10.5 199.5 28.04
10.5 200.5 28.11
10.5 201.5 28.08
10.5 202.5 28.08
10.5 203.5 28.1
10.5 204.5 28.1
10.5 205.5 28.11
10.5 206.5 28.13
10.5 207.5 28.16
10.5 208.5 28.16
10.5 209.5 28.21
