39.5 180.5 11.81
39.5 181.5 11.86
39.5 182.5 11.86
39.5 183.5 11.93
39.5 184.5 12.38
39.5 185.5 12.2
39.5 186.5 11.79
39.5 187.5 11.42
39.5 188.5 11.43
39.5 189.5 11.36
39.5 190.5 11.3
39.5 191.5 11.21
39.5 192.5 11.12
39.5 193.5 11.22
39.5 194.5 11.39
39.5 195.5 11.4
39.5 196.5 11.01
39.5 197.5 10.83
39.5 198.5 10.77
39.5 199.5 10.74
39.5 200.5 10.74
39.5 201.5 10.7
39.5 202.5 10.68
39.5 203.5 10.7
39.5 204.5 10.83
39.5 205.5 10.74
39.5 206.5 10.63
39.5 207.5 10.64
39.5 208.5 11.02
39.5 209.5 11.16
38.5 180.5 12.68
38.5 181.5 12.74
38.5 182.5 12.81
38.5 183.5 12.95
38.5 184.5 13.49
38.5 185.5 13.34
38.5 186.5 12.95
38.5 187.5 12.61
38.5 188.5 12.71
38.5 189.5 12.61
38.5 190.5 12.47
38.5 191.5 12.26
38.5 192.5 11.99
38.5 193.5 12.04
38.5 194.5 12.19
38.5 195.5 12.16
38.5 196.5 11.7
38.5 197.5 11.48
38.5 198.5 11.41
38.5 199.5 11.39
38.5 200.5 11.43
38.5 201.5 11.4
38.5 202.5 11.37
38.5 203.5 11.38
38.5 204.5 11.51
38.5 205.5 11.47
38.5 206.5 11.41
38.5 207.5 11.43
38.5 208.5 11.71
38.5 209.5 11.83
37.5 180.5 13.59
37.5 181.5 13.6
37.5 182.5 13.67
37.5 183.5 13.81
37.5 184.5 14.33
37.5 185.5 14.21
37.5 186.5 13.85
37.5 187.5 13.57
37.5 188.5 13.73
37.5 189.5 13.56
37.5 190.5 13.3
37.5 191.5 12.94
37.5 192.5 12.53
37.5 193.5 12.52
37.5 194.5 12.66
37.5 195.5 12.64
37.5 196.5 12.21
37.5 197.5 12.01
37.5 198.5 11.96
37.5 199.5 11.98
37.5 200.5 12.04
37.5 201.5 12.02
37.5 202.5 11.99
37.5 203.5 12.01
37.5 204.5 12.19
37.5 205.5 12.22
37.5 206.5 12.22
37.5 207.5 12.28
37.5 208.5 12.49
37.5 209.5 12.6
36.5 180.5 14.63
36.5 181.5 14.55
36.5 182.5 14.55
36.5 183.5 14.59
36.5 184.5 14.93
36.5 185.5 14.78
36.5 186.5 14.47
36.5 187.5 14.25
36.5 188.5 14.46
36.5 189.5 14.2
36.5 190.5 13.8
36.5 191.5 13.33
36.5 192.5 12.89
36.5 193.5 12.84
36.5 194.5 12.99
36.5 195.5 13.02
36.5 196.5 12.67
36.5 197.5 12.52
36.5 198.5 12.5
36.5 199.5 12.55
36.5 200.5 12.63
36.5 201.5 12.63
36.5 202.5 12.61
36.5 203.5 12.66
36.5 204.5 12.92
36.5 205.5 13.01
36.5 206.5 13.06
36.5 207.5 13.15
36.5 208.5 13.34
36.5 209.5 13.45
35.5 180.5 15.84
35.5 181.5 15.73
35.5 182.5 15.68
35.5 183.5 15.6
35.5 184.5 15.59
35.5 185.5 15.3
35.5 186.5 14.94
35.5 187.5 14.72
35.5 188.5 14.95
35.5 189.5 14.63
35.5 190.5 14.15
35.5 191.5 13.66
35.5 192.5 13.31
35.5 193.5 13.31
35.5 194.5 13.49
35.5 195.5 13.56
35.5 196.5 13.24
35.5 197.5 13.12
35.5 198.5 13.13
35.5 199.5 13.18
35.5 200.5 13.25
35.5 201.5 13.29
35.5 202.5 13.32
35.5 203.5 13.42
35.5 204.5 13.76
35.5 205.5 13.9
35.5 206.5 13.97
35.5 207.5 14.08
35.5 208.5 14.34
35.5 209.5 14.46
34.5 180.5 16.96
34.5 181.5 16.85
34.5 182.5 16.74
34.5 183.5 16.54
34.5 184.5 16.16
34.5 185.5 15.76
34.5 186.5 15.4
34.5 187.5 15.21
34.5 188.5 15.39
34.5 189.5 15.08
34.5 190.5 14.62
34.5 191.5 14.2
34.5 192.5 14.05
34.5 193.5 14.11
34.5 194.5 14.32
34.5 195.5 14.42
34.5 196.5 14.08
34.5 197.5 13.98
34.5 198.5 13.97
34.5 199.5 14.01
34.5 200.5 14.09
34.5 201.5 14.14
34.5 202.5 14.2
34.5 203.5 14.33
34.5 204.5 14.77
34.5 205.5 14.92
34.5 206.5 14.99
34.5 207.5 15.1
34.5 208.5 15.44
34.5 209.5 15.54
33.5 180.5 17.88
33.5 181.5 17.82
33.5 182.5 17.71
33.5 183.5 17.47
33.5 184.5 16.87
33.5 185.5 16.46
33.5 186.5 16.13
33.5 187.5 15.96
33.5 188.5 16
33.5 189.5 15.72
33.5 190.5 15.31
33.5 191.5 14.98
33.5 192.5 14.98
33.5 193.5 15.1
33.5 194.5 15.3
33.5 195.5 15.42
33.5 196.5 15.12
33.5 197.5 15.02
33.5 198.5 14.99
33.5 199.5 14.99
33.5 200.5 15
33.5 201.5 15.04
33.5 202.5 15.09
33.5 203.5 15.23
33.5 204.5 15.74
33.5 205.5 15.89
33.5 206.5 15.95
33.5 207.5 16.08
33.5 208.5 16.46
33.5 209.5 16.52
32.5 180.5 18.51
32.5 181.5 18.52
32.5 182.5 18.48
32.5 183.5 18.32
32.5 184.5 17.73
32.5 185.5 17.41
32.5 186.5 17.16
32.5 187.5 16.99
32.5 188.5 16.85
32.5 189.5 16.57
32.5 190.5 16.23
32.5 191.5 15.98
32.5 192.5 15.99
32.5 193.5 16.1
32.5 194.5 16.28
32.5 195.5 16.42
32.5 196.5 16.25
32.5 197.5 16.17
32.5 198.5 16.1
32.5 199.5 16.01
32.5 200.5 15.94
32.5 201.5 15.95
32.5 202.5 15.98
32.5 203.5 16.12
32.5 204.5 16.62
32.5 205.5 16.76
32.5 206.5 16.83
32.5 207.5 16.97
32.5 208.5 17.35
32.5 209.5 17.37
31.5 180.5 19.02
31.5 181.5 19.08
31.5 182.5 19.12
31.5 183.5 19.08
31.5 184.5 18.71
31.5 185.5 18.52
31.5 186.5 18.35
31.5 187.5 18.2
31.5 188.5 18
31.5 189.5 17.79
31.5 190.5 17.56
31.5 191.5 17.33
31.5 192.5 17.13
31.5 193.5 17.11
31.5 194.5 17.19
31.5 195.5 17.3
31.5 196.5 17.36
31.5 197.5 17.29
31.5 198.5 17.16
31.5 199.5 17.02
31.5 200.5 16.97
31.5 201.5 16.95
31.5 202.5 16.96
31.5 203.5 17.09
31.5 204.5 17.54
31.5 205.5 17.66
31.5 206.5 17.74
31.5 207.5 17.88
31.5 208.5 18.22
31.5 209.5 18.21
30.5 180.5 19.66
30.5 181.5 19.69
30.5 182.5 19.74
30.5 183.5 19.72
30.5 184.5 19.44
30.5 185.5 19.36
30.5 186.5 19.29
30.5 187.5 19.19
30.5 188.5 19.06
30.5 189.5 18.89
30.5 190.5 18.72
30.5 191.5 18.52
30.5 192.5 18.24
30.5 193.5 18.14
30.5 194.5 18.15
30.5 195.5 18.24
30.5 196.5 18.37
30.5 197.5 18.29
30.5 198.5 18.12
30.5 199.5 17.98
30.5 200.5 18.06
30.5 201.5 18.05
30.5 202.5 18.04
30.5 203.5 18.14
30.5 204.5 18.54
30.5 205.5 18.65
30.5 206.5 18.73
30.5 207.5 18.88
30.5 208.5 19.12
30.5 209.5 19.11
29.5 180.5 20.53
29.5 181.5 20.51
29.5 182.5 20.51
29.5 183.5 20.44
29.5 184.5 20.13
29.5 185.5 20.07
29.5 186.5 20.04
29.5 187.5 19.98
29.5 188.5 19.95
29.5 189.5 19.83
29.5 190.5 19.73
29.5 191.5 19.59
29.5 192.5 19.37
29.5 193.5 19.26
29.5 194.5 19.23
29.5 195.5 19.27
29.5 196.5 19.35
29.5 197.5 19.24
29.5 198.5 19.05
29.5 199.5 18.94
29.5 200.5 19.16
29.5 201.5 19.2
29.5 202.5 19.19
29.5 203.5 19.26
29.5 204.5 19.54
29.5 205.5 19.62
29.5 206.5 19.67
29.5 207.5 19.8
29.5 208.5 19.97
29.5 209.5 19.97
28.5 180.5 21.49
28.5 181.5 21.44
28.5 182.5 21.4
28.5 183.5 21.26
28.5 184.5 20.86
28.5 185.5 20.76
28.5 186.5 20.72
28.5 187.5 20.66
28.5 188.5 20.65
28.5 189.5 20.58
28.5 190.5 20.56
28.5 191.5 20.52
28.5 192.5 20.45
28.5 193.5 20.36
28.5 194.5 20.31
28.5 195.5 20.29
28.5 196.5 20.3
28.5 197.5 20.16
28.5 198.5 19.97
28.5 199.5 19.9
28.5 200.5 20.2
28.5 201.5 20.27
28.5 202.5 20.28
28.5 203.5 20.32
28.5 204.5 20.47
28.5 205.5 20.48
28.5 206.5 20.5
28.5 207.5 20.58
28.5 208.5 20.69
28.5 209.5 20.7
27.5 180.5 22.33
27.5 181.5 22.32
27.5 182.5 22.3
27.5 183.5 22.15
27.5 184.5 21.73
27.5 185.5 21.58
27.5 186.5 21.5
27.5 187.5 21.42
27.5 188.5 21.35
27.5 189.5 21.32
27.5 190.5 21.32
27.5 191.5 21.32
27.5 192.5 21.41
27.5 193.5 21.32
27.5 194.5 21.22
27.5 195.5 21.13
27.5 196.5 21.16
27.5 197.5 21.02
27.5 198.5 20.87
27.5 199.5 20.84
27.5 200.5 21.06
27.5 201.5 21.15
27.5 202.5 21.2
27.5 203.5 21.25
27.5 204.5 21.34
27.5 205.5 21.32
27.5 206.5 21.3
27.5 207.5 21.34
27.5 208.5 21.42
27.5 209.5 21.44
26.5 180.5 23.15
26.5 181.5 23.15
26.5 182.5 23.11
26.5 183.5 22.97
26.5 184.5 22.67
26.5 185.5 22.52
26.5 186.5 22.44
26.5 187.5 22.36
26.5 188.5 22.17
26.5 189.5 22.11
26.5 190.5 22.08
26.5 191.5 22.04
26.5 192.5 22.05
26.5 193.5 21.97
26.5 194.5 21.88
26.5 195.5 21.81
26.5 196.5 21.98
26.5 197.5 21.89
26.5 198.5 21.8
26.5 199.5 21.8
26.5 200.5 21.96
26.5 201.5 22.02
26.5 202.5 22.06
26.5 203.5 22.09
26.5 204.5 22.07
26.5 205.5 22.04
26.5 206.5 22.01
26.5 207.5 22.04
26.5 208.5 22.09
26.5 209.5 22.1
25.5 180.5 23.9
25.5 181.5 23.89
25.5 182.5 23.84
25.5 183.5 23.69
25.5 184.5 23.53
25.5 185.5 23.4
25.5 186.5 23.34
25.5 187.5 23.28
25.5 188.5 23.05
25.5 189.5 22.96
25.5 190.5 22.88
25.5 191.5 22.76
25.5 192.5 22.63
25.5 193.5 22.52
25.5 194.5 22.43
25.5 195.5 22.39
25.5 196.5 22.69
25.5 197.5 22.67
25.5 198.5 22.63
25.5 199.5 22.66
25.5 200.5 22.79
25.5 201.5 22.8
25.5 202.5 22.78
25.5 203.5 22.76
25.5 204.5 22.69
25.5 205.5 22.68
25.5 206.5 22.68
25.5 207.5 22.72
25.5 208.5 22.77
25.5 209.5 22.75
24.5 180.5 24.48
24.5 181.5 24.46
24.5 182.5 24.37
24.5 183.5 24.21
24.5 184.5 24.1
24.5 185.5 23.99
24.5 186.5 23.97
24.5 187.5 23.96
24.5 188.5 23.8
24.5 189.5 23.72
24.5 190.5 23.61
24.5 191.5 23.45
24.5 192.5 23.24
24.5 193.5 23.11
24.5 194.5 23.02
24.5 195.5 22.99
24.5 196.5 23.3
24.5 197.5 23.33
24.5 198.5 23.34
24.5 199.5 23.37
24.5 200.5 23.47
24.5 201.5 23.43
24.5 202.5 23.36
24.5 203.5 23.29
24.5 204.5 23.23
24.5 205.5 23.26
24.5 206.5 23.3
24.5 207.5 23.35
24.5 208.5 23.37
24.5 209.5 23.33
23.5 180.5 24.8
23.5 181.5 24.73
23.5 182.5 24.6
23.5 183.5 24.42
23.5 184.5 24.29
23.5 185.5 24.23
23.5 186.5 24.25
23.5 187.5 24.31
23.5 188.5 24.34
23.5 189.5 24.28
23.5 190.5 24.19
23.5 191.5 24.06
23.5 192.5 23.94
23.5 193.5 23.82
23.5 194.5 23.74
23.5 195.5 23.71
23.5 196.5 23.87
23.5 197.5 23.93
23.5 198.5 23.96
23.5 199.5 23.97
23.5 200.5 23.99
23.5 201.5 23.91
23.5 202.5 23.82
23.5 203.5 23.76
23.5 204.5 23.77
23.5 205.5 23.81
23.5 206.5 23.83
23.5 207.5 23.83
23.5 208.5 23.77
23.5 209.5 23.7
22.5 180.5 25.07
22.5 181.5 24.96
22.5 182.5 24.78
22.5 183.5 24.57
22.5 184.5 24.43
22.5 185.5 24.38
22.5 186.5 24.42
22.5 187.5 24.51
22.5 188.5 24.66
22.5 189.5 24.68
22.5 190.5 24.67
22.5 191.5 24.61
22.5 192.5 24.56
22.5 193.5 24.49
22.5 194.5 24.43
22.5 195.5 24.39
22.5 196.5 24.42
22.5 197.5 24.47
22.5 198.5 24.5
22.5 199.5 24.5
22.5 200.5 24.48
22.5 201.5 24.38
22.5 202.5 24.28
22.5 203.5 24.21
22.5 204.5 24.19
22.5 205.5 24.22
22.5 206.5 24.22
22.5 207.5 24.17
22.5 208.5 24.04
22.5 209.5 23.93
21.5 180.5 25.36
21.5 181.5 25.22
21.5 182.5 25.02
21.5 183.5 24.81
21.5 184.5 24.72
21.5 185.5 24.69
21.5 186.5 24.73
21.5 187.5 24.82
21.5 188.5 25.01
21.5 189.5 25.08
21.5 190.5 25.12
21.5 191.5 25.12
21.5 192.5 25.1
21.5 193.5 25.07
21.5 194.5 25.03
21.5 195.5 24.98
21.5 196.5 24.91
21.5 197.5 24.94
21.5 198.5 24.95
21.5 199.5 24.95
21.5 200.5 24.91
21.5 201.5 24.82
21.5 202.5 24.71
21.5 203.5 24.63
21.5 204.5 24.58
21.5 205.5 24.56
21.5 206.5 24.51
21.5 207.5 24.41
21.5 208.5 24.21
21.5 209.5 24.07
20.5 180.5 25.72
20.5 181.5 25.59
20.5 182.5 25.41
20.5 183.5 25.24
20.5 184.5 25.2
20.5 185.5 25.18
20.5 186.5 25.2
20.5 187.5 25.26
20.5 188.5 25.39
20.5 189.5 25.46
20.5 190.5 25.51
20.5 191.5 25.52
20.5 192.5 25.5
20.5 193.5 25.48
20.5 194.5 25.45
20.5 195.5 25.39
20.5 196.5 25.28
20.5 197.5 25.28
20.5 198.5 25.29
20.5 199.5 25.28
20.5 200.5 25.24
20.5 201.5 25.17
20.5 202.5 25.07
20.5 203.5 24.98
20.5 204.5 24.88
20.5 205.5 24.8
20.5 206.5 24.69
20.5 207.5 24.54
20.5 208.5 24.34
20.5 209.5 24.18
19.5 180.5 26.09
19.5 181.5 25.98
19.5 182.5 25.84
19.5 183.5 25.72
19.5 184.5 25.69
19.5 185.5 25.69
19.5 186.5 25.7
19.5 187.5 25.71
19.5 188.5 25.67
19.5 189.5 25.69
19.5 190.5 25.71
19.5 191.5 25.7
19.5 192.5 25.64
19.5 193.5 25.61
19.5 194.5 25.58
19.5 195.5 25.54
19.5 196.5 25.47
19.5 197.5 25.46
19.5 198.5 25.45
19.5 199.5 25.45
19.5 200.5 25.41
19.5 201.5 25.39
19.5 202.5 25.33
19.5 203.5 25.23
19.5 204.5 25.12
19.5 205.5 24.99
19.5 206.5 24.83
19.5 207.5 24.64
19.5 208.5 24.48
19.5 209.5 24.31
18.5 180.5 26.34
18.5 181.5 26.27
18.5 182.5 26.17
18.5 183.5 26.09
18.5 184.5 26.03
18.5 185.5 26
18.5 186.5 25.97
18.5 187.5 25.92
18.5 188.5 25.8
18.5 189.5 25.78
18.5 190.5 25.77
18.5 191.5 25.75
18.5 192.5 25.69
18.5 193.5 25.64
18.5 194.5 25.6
18.5 195.5 25.57
18.5 196.5 25.52
18.5 197.5 25.49
18.5 198.5 25.46
18.5 199.5 25.45
18.5 200.5 25.39
18.5 201.5 25.36
18.5 202.5 25.29
18.5 203.5 25.2
18.5 204.5 25.15
18.5 205.5 25.03
18.5 206.5 24.88
18.5 207.5 24.72
18.5 208.5 24.61
18.5 209.5 24.45
17.5 180.5 26.42
17.5 181.5 26.37
17.5 182.5 26.31
17.5 183.5 26.25
17.5 184.5 26.18
17.5 185.5 26.12
17.5 186.5 26.06
17.5 187.5 25.96
17.5 188.5 25.83
17.5 189.5 25.77
17.5 190.5 25.74
17.5 191.5 25.7
17.5 192.5 25.66
17.5 193.5 25.61
17.5 194.5 25.56
17.5 195.5 25.54
17.5 196.5 25.5
17.5 197.5 25.47
17.5 198.5 25.42
17.5 199.5 25.38
17.5 200.5 25.31
17.5 201.5 25.25
17.5 202.5 25.15
17.5 203.5 25.05
17.5 204.5 25.09
17.5 205.5 25.03
17.5 206.5 24.94
17.5 207.5 24.83
17.5 208.5 24.77
17.5 209.5 24.63
16.5 180.5 26.42
16.5 181.5 26.38
16.5 182.5 26.34
16.5 183.5 26.29
16.5 184.5 26.21
16.5 185.5 26.14
16.5 186.5 26.05
16.5 187.5 25.94
16.5 188.5 25.83
16.5 189.5 25.76
16.5 190.5 25.72
16.5 191.5 25.68
16.5 192.5 25.66
16.5 193.5 25.61
16.5 194.5 25.57
16.5 195.5 25.56
16.5 196.5 25.52
16.5 197.5 25.48
16.5 198.5 25.41
16.5 199.5 25.35
16.5 200.5 25.26
16.5 201.5 25.17
16.5 202.5 25.05
16.5 203.5 24.95
16.5 204.5 25.05
16.5 205.5 25.05
16.5 206.5 25.04
16.5 207.5 25.01
16.5 208.5 24.98
16.5 209.5 24.85
15.5 180.5 26.43
15.5 181.5 26.4
15.5 182.5 26.37
15.5 183.5 26.33
15.5 184.5 26.26
15.5 185.5 26.17
15.5 186.5 26.08
15.5 187.5 25.98
15.5 188.5 25.9
15.5 189.5 25.86
15.5 190.5 25.85
15.5 191.5 25.82
15.5 192.5 25.8
15.5 193.5 25.75
15.5 194.5 25.72
15.5 195.5 25.71
15.5 196.5 25.68
15.5 197.5 25.64
15.5 198.5 25.56
15.5 199.5 25.47
15.5 200.5 25.34
15.5 201.5 25.23
15.5 202.5 25.1
15.5 203.5 25.01
15.5 204.5 25.11
15.5 205.5 25.18
15.5 206.5 25.24
15.5 207.5 25.24
15.5 208.5 25.17
15.5 209.5 25.02
14.5 180.5 26.45
14.5 181.5 26.43
14.5 182.5 26.4
14.5 183.5 26.38
14.5 184.5 26.34
14.5 185.5 26.25
14.5 186.5 26.15
14.5 187.5 26.04
14.5 188.5 25.99
14.5 189.5 25.97
14.5 190.5 25.97
14.5 191.5 25.97
14.5 192.5 25.95
14.5 193.5 25.92
14.5 194.5 25.91
14.5 195.5 25.91
14.5 196.5 25.85
14.5 197.5 25.82
14.5 198.5 25.76
14.5 199.5 25.66
14.5 200.5 25.47
14.5 201.5 25.34
14.5 202.5 25.22
14.5 203.5 25.14
14.5 204.5 25.21
14.5 205.5 25.31
14.5 206.5 25.41
14.5 207.5 25.45
14.5 208.5 25.35
14.5 209.5 25.2
13.5 180.5 26.5
13.5 181.5 26.46
13.5 182.5 26.44
13.5 183.5 26.43
13.5 184.5 26.41
13.5 185.5 26.32
13.5 186.5 26.23
13.5 187.5 26.12
13.5 188.5 26.11
13.5 189.5 26.1
13.5 190.5 26.11
13.5 191.5 26.12
13.5 192.5 26.1
13.5 193.5 26.07
13.5 194.5 26.07
13.5 195.5 26.08
13.5 196.5 26
13.5 197.5 25.98
13.5 198.5 25.94
13.5 199.5 25.85
13.5 200.5 25.6
13.5 201.5 25.47
13.5 202.5 25.36
13.5 203.5 25.31
13.5 204.5 25.37
13.5 205.5 25.48
13.5 206.5 25.6
13.5 207.5 25.64
13.5 208.5 25.53
13.5 209.5 25.36
12.5 180.5 26.59
12.5 181.5 26.55
12.5 182.5 26.52
12.5 183.5 26.5
12.5 184.5 26.48
12.5 185.5 26.41
12.5 186.5 26.33
12.5 187.5 26.24
12.5 188.5 26.28
12.5 189.5 26.28
12.5 190.5 26.29
12.5 191.5 26.3
12.5 192.5 26.26
12.5 193.5 26.23
12.5 194.5 26.24
12.5 195.5 26.26
12.5 196.5 26.16
12.5 197.5 26.15
12.5 198.5 26.11
12.5 199.5 26.01
12.5 200.5 25.75
12.5 201.5 25.63
12.5 202.5 25.55
12.5 203.5 25.53
12.5 204.5 25.61
12.5 205.5 25.73
12.5 206.5 25.85
12.5 207.5 25.89
12.5 208.5 25.75
12.5 209.5 25.57
11.5 180.5 26.78
11.5 181.5 26.73
11.5 182.5 26.68
11.5 183.5 26.63
11.5 184.5 26.6
11.5 185.5 26.55
11.5 186.5 26.51
11.5 187.5 26.47
11.5 188.5 26.55
11.5 189.5 26.56
11.5 190.5 26.54
11.5 191.5 26.54
11.5 192.5 26.45
11.5 193.5 26.44
11.5 194.5 26.46
11.5 195.5 26.49
11.5 196.5 26.39
11.5 197.5 26.37
11.5 198.5 26.33
11.5 199.5 26.21
11.5 200.5 25.95
11.5 201.5 25.86
11.5 202.5 25.82
11.5 203.5 25.85
11.5 204.5 26.02
11.5 205.5 26.15
11.5 206.5 26.25
11.5 207.5 26.26
11.5 208.5 26.11
11.5 209.5 25.95
10.5 180.5 27.03
10.5 181.5 26.97
10.5 182.5 26.9
10.5 183.5 26.83
10.5 184.5 26.78
10.5 185.5 26.75
10.5 186.5 26.74
10.5 187.5 26.75
10.5 188.5 26.89
10.5 189.5 26.9
10.5 190.5 26.88
10.5 191.5 26.88
10.5 192.5 26.79
10.5 193.5 26.78
10.5 194.5 26.81
10.5 195.5 26.84
10.5 196.5 26.77
10.5 197.5 26.75
10.5 198.5 26.69
10.5 199.5 26.56
10.5 200.5 26.29
10.5 201.5 26.2
10.5 202.5 26.18
10.5 203.5 26.22
10.5 204.5 26.41
10.5 205.5 26.53
10.5 206.5 26.6
10.5 207.5 26.61
10.5 208.5 26.54
10.5 209.5 26.43
