39.5 180.5 14.34
39.5 181.5 14.3
39.5 182.5 14.25
39.5 183.5 14.18
39.5 184.5 14.21
39.5 185.5 14.21
39.5 186.5 14.15
39.5 187.5 13.97
39.5 188.5 13.68
39.5 189.5 13.53
39.5 190.5 13.44
39.5 191.5 13.24
39.5 192.5 12.65
39.5 193.5 12.54
39.5 194.5 12.51
39.5 195.5 12.51
39.5 196.5 12.4
39.5 197.5 12.24
39.5 198.5 12.07
39.5 199.5 11.93
39.5 200.5 11.78
39.5 201.5 11.83
39.5 202.5 11.9
39.5 203.5 12.01
39.5 204.5 12.3
39.5 205.5 12.28
39.5 206.5 12.21
39.5 207.5 12.24
39.5 208.5 12.63
39.5 209.5 12.73
38.5 180.5 15.5
38.5 181.5 15.45
38.5 182.5 15.36
38.5 183.5 15.23
38.5 184.5 15.14
38.5 185.5 15.08
38.5 186.5 14.98
38.5 187.5 14.74
38.5 188.5 14.33
38.5 189.5 14.19
38.5 190.5 14.15
38.5 191.5 14.03
38.5 192.5 13.51
38.5 193.5 13.41
38.5 194.5 13.41
38.5 195.5 13.43
38.5 196.5 13.36
38.5 197.5 13.22
38.5 198.5 13.06
38.5 199.5 12.92
38.5 200.5 12.71
38.5 201.5 12.76
38.5 202.5 12.82
38.5 203.5 12.93
38.5 204.5 13.25
38.5 205.5 13.23
38.5 206.5 13.13
38.5 207.5 13.14
38.5 208.5 13.57
38.5 209.5 13.64
37.5 180.5 16.27
37.5 181.5 16.14
37.5 182.5 16.01
37.5 183.5 15.84
37.5 184.5 15.64
37.5 185.5 15.53
37.5 186.5 15.4
37.5 187.5 15.15
37.5 188.5 14.76
37.5 189.5 14.67
37.5 190.5 14.73
37.5 191.5 14.7
37.5 192.5 14.32
37.5 193.5 14.24
37.5 194.5 14.24
37.5 195.5 14.27
37.5 196.5 14.21
37.5 197.5 14.12
37.5 198.5 13.99
37.5 199.5 13.88
37.5 200.5 13.65
37.5 201.5 13.71
37.5 202.5 13.75
37.5 203.5 13.83
37.5 204.5 14.14
37.5 205.5 14.12
37.5 206.5 14.04
37.5 207.5 14.05
37.5 208.5 14.47
37.5 209.5 14.49
36.5 180.5 16.79
36.5 181.5 16.57
36.5 182.5 16.41
36.5 183.5 16.22
36.5 184.5 15.91
36.5 185.5 15.73
36.5 186.5 15.57
36.5 187.5 15.33
36.5 188.5 15.06
36.5 189.5 15.07
36.5 190.5 15.2
36.5 191.5 15.27
36.5 192.5 15.14
36.5 193.5 15.09
36.5 194.5 15.08
36.5 195.5 15.12
36.5 196.5 15.05
36.5 197.5 15
36.5 198.5 14.92
36.5 199.5 14.85
36.5 200.5 14.64
36.5 201.5 14.68
36.5 202.5 14.7
36.5 203.5 14.74
36.5 204.5 14.97
36.5 205.5 14.96
36.5 206.5 14.91
36.5 207.5 14.94
36.5 208.5 15.3
36.5 209.5 15.29
35.5 180.5 17.48
35.5 181.5 17.25
35.5 182.5 17.13
35.5 183.5 16.95
35.5 184.5 16.49
35.5 185.5 16.23
35.5 186.5 16.02
35.5 187.5 15.79
35.5 188.5 15.7
35.5 189.5 15.7
35.5 190.5 15.79
35.5 191.5 15.9
35.5 192.5 16.07
35.5 193.5 16.06
35.5 194.5 16.02
35.5 195.5 16.03
35.5 196.5 16.07
35.5 197.5 16.08
35.5 198.5 16.06
35.5 199.5 16.05
35.5 200.5 15.9
35.5 201.5 15.91
35.5 202.5 15.88
35.5 203.5 15.84
35.5 204.5 15.79
35.5 205.5 15.72
35.5 206.5 15.66
35.5 207.5 15.67
35.5 208.5 15.92
35.5 209.5 15.9
34.5 180.5 17.79
34.5 181.5 17.61
34.5 182.5 17.57
34.5 183.5 17.47
34.5 184.5 17.13
34.5 185.5 16.86
34.5 186.5 16.61
34.5 187.5 16.4
34.5 188.5 16.5
34.5 189.5 16.54
34.5 190.5 16.64
34.5 191.5 16.82
34.5 192.5 17.15
34.5 193.5 17.18
34.5 194.5 17.15
34.5 195.5 17.16
34.5 196.5 17.18
34.5 197.5 17.19
34.5 198.5 17.18
34.5 199.5 17.14
34.5 200.5 16.99
34.5 201.5 16.98
34.5 202.5 16.94
34.5 203.5 16.88
34.5 204.5 16.8
34.5 205.5 16.73
34.5 206.5 16.66
34.5 207.5 16.66
34.5 208.5 16.8
34.5 209.5 16.73
33.5 180.5 17.92
33.5 181.5 17.81
33.5 182.5 17.85
33.5 183.5 17.86
33.5 184.5 17.78
33.5 185.5 17.54
33.5 186.5 17.27
33.5 187.5 17.12
33.5 188.5 17.45
33.5 189.5 17.55
33.5 190.5 17.66
33.5 191.5 17.88
33.5 192.5 18.2
33.5 193.5 18.28
33.5 194.5 18.26
33.5 195.5 18.25
33.5 196.5 18.21
33.5 197.5 18.2
33.5 198.5 18.16
33.5 199.5 18.09
33.5 200.5 17.92
33.5 201.5 17.9
33.5 202.5 17.87
33.5 203.5 17.84
33.5 204.5 17.78
33.5 205.5 17.7
33.5 206.5 17.61
33.5 207.5 17.56
33.5 208.5 17.58
33.5 209.5 17.45
32.5 180.5 18.06
32.5 181.5 18.01
32.5 182.5 18.09
32.5 183.5 18.16
32.5 184.5 18.37
32.5 185.5 18.15
32.5 186.5 17.88
32.5 187.5 17.81
32.5 188.5 18.42
32.5 189.5 18.58
32.5 190.5 18.7
32.5 191.5 18.91
32.5 192.5 19.14
32.5 193.5 19.26
32.5 194.5 19.25
32.5 195.5 19.23
32.5 196.5 19.1
32.5 197.5 19.05
32.5 198.5 19
32.5 199.5 18.92
32.5 200.5 18.75
32.5 201.5 18.75
32.5 202.5 18.74
32.5 203.5 18.72
32.5 204.5 18.7
32.5 205.5 18.59
32.5 206.5 18.47
32.5 207.5 18.36
32.5 208.5 18.25
32.5 209.5 18.05
31.5 180.5 18.51
31.5 181.5 18.49
31.5 182.5 18.61
31.5 183.5 18.71
31.5 184.5 18.98
31.5 185.5 18.76
31.5 186.5 18.48
31.5 187.5 18.45
31.5 188.5 19.21
31.5 189.5 19.42
31.5 190.5 19.57
31.5 191.5 19.77
31.5 192.5 19.98
31.5 193.5 20.12
31.5 194.5 20.14
31.5 195.5 20.1
31.5 196.5 19.8
31.5 197.5 19.8
31.5 198.5 19.85
31.5 199.5 19.88
31.5 200.5 19.69
31.5 201.5 19.69
31.5 202.5 19.65
31.5 203.5 19.56
31.5 204.5 19.58
31.5 205.5 19.41
31.5 206.5 19.25
31.5 207.5 19.1
31.5 208.5 18.9
31.5 209.5 18.64
30.5 180.5 18.94
30.5 181.5 18.89
30.5 182.5 18.97
30.5 183.5 19.05
30.5 184.5 19.4
30.5 185.5 19.24
30.5 186.5 19.01
30.5 187.5 19.08
30.5 188.5 19.91
30.5 189.5 20.17
30.5 190.5 20.33
30.5 191.5 20.53
30.5 192.5 20.72
30.5 193.5 20.85
30.5 194.5 20.88
30.5 195.5 20.83
30.5 196.5 20.54
30.5 197.5 20.56
30.5 198.5 20.65
30.5 199.5 20.75
30.5 200.5 20.6
30.5 201.5 20.6
30.5 202.5 20.56
30.5 203.5 20.43
30.5 204.5 20.36
30.5 205.5 20.15
30.5 206.5 19.98
30.5 207.5 19.83
30.5 208.5 19.66
30.5 209.5 19.41
29.5 180.5 19.61
29.5 181.5 19.5
29.5 182.5 19.52
29.5 183.5 19.59
29.5 184.5 19.97
29.5 185.5 19.91
29.5 186.5 19.82
29.5 187.5 19.96
29.5 188.5 20.7
29.5 189.5 20.92
29.5 190.5 21.04
29.5 191.5 21.2
29.5 192.5 21.34
29.5 193.5 21.42
29.5 194.5 21.44
29.5 195.5 21.39
29.5 196.5 21.19
29.5 197.5 21.25
29.5 198.5 21.39
29.5 199.5 21.52
29.5 200.5 21.43
29.5 201.5 21.44
29.5 202.5 21.4
29.5 203.5 21.25
29.5 204.5 21.07
29.5 205.5 20.84
29.5 206.5 20.68
29.5 207.5 20.57
29.5 208.5 20.47
29.5 209.5 20.28
28.5 180.5 20.44
28.5 181.5 20.27
28.5 182.5 20.25
28.5 183.5 20.33
28.5 184.5 20.75
28.5 185.5 20.82
28.5 186.5 20.86
28.5 187.5 21.04
28.5 188.5 21.55
28.5 189.5 21.66
28.5 190.5 21.71
28.5 191.5 21.78
28.5 192.5 21.84
28.5 193.5 21.89
28.5 194.5 21.91
28.5 195.5 21.88
28.5 196.5 21.78
28.5 197.5 21.88
28.5 198.5 22.03
28.5 199.5 22.17
28.5 200.5 22.17
28.5 201.5 22.17
28.5 202.5 22.13
28.5 203.5 21.98
28.5 204.5 21.71
28.5 205.5 21.48
28.5 206.5 21.35
28.5 207.5 21.26
28.5 208.5 21.23
28.5 209.5 21.09
27.5 180.5 21.39
27.5 181.5 21.22
27.5 182.5 21.16
27.5 183.5 21.25
27.5 184.5 21.78
27.5 185.5 21.88
27.5 186.5 21.94
27.5 187.5 22.02
27.5 188.5 22.17
27.5 189.5 22.16
27.5 190.5 22.17
27.5 191.5 22.25
27.5 192.5 22.35
27.5 193.5 22.43
27.5 194.5 22.48
27.5 195.5 22.47
27.5 196.5 22.48
27.5 197.5 22.55
27.5 198.5 22.67
27.5 199.5 22.78
27.5 200.5 22.87
27.5 201.5 22.83
27.5 202.5 22.77
27.5 203.5 22.61
27.5 204.5 22.34
27.5 205.5 22.13
27.5 206.5 22.02
27.5 207.5 21.93
27.5 208.5 21.89
27.5 209.5 21.76
26.5 180.5 22.35
26.5 181.5 22.22
26.5 182.5 22.15
26.5 183.5 22.2
26.5 184.5 22.62
26.5 185.5 22.76
26.5 186.5 22.88
26.5 187.5 22.95
26.5 188.5 22.87
26.5 189.5 22.73
26.5 190.5 22.63
26.5 191.5 22.65
26.5 192.5 22.83
26.5 193.5 22.97
26.5 194.5 23.07
26.5 195.5 23.1
26.5 196.5 23.2
26.5 197.5 23.2
26.5 198.5 23.23
26.5 199.5 23.25
26.5 200.5 23.32
26.5 201.5 23.28
26.5 202.5 23.26
26.5 203.5 23.14
26.5 204.5 22.86
26.5 205.5 22.69
26.5 206.5 22.6
26.5 207.5 22.5
26.5 208.5 22.4
26.5 209.5 22.27
25.5 180.5 23.3
25.5 181.5 23.26
25.5 182.5 23.19
25.5 183.5 23.18
25.5 184.5 23.42
25.5 185.5 23.55
25.5 186.5 23.67
25.5 187.5 23.72
25.5 188.5 23.52
25.5 189.5 23.27
25.5 190.5 23.1
25.5 191.5 23.11
25.5 192.5 23.39
25.5 193.5 23.58
25.5 194.5 23.72
25.5 195.5 23.76
25.5 196.5 23.88
25.5 197.5 23.82
25.5 198.5 23.77
25.5 199.5 23.72
25.5 200.5 23.73
25.5 201.5 23.7
25.5 202.5 23.71
25.5 203.5 23.63
25.5 204.5 23.34
25.5 205.5 23.19
25.5 206.5 23.1
25.5 207.5 22.97
25.5 208.5 22.81
25.5 209.5 22.65
24.5 180.5 24.12
24.5 181.5 24.14
24.5 182.5 24.09
24.5 183.5 24.03
24.5 184.5 24.17
24.5 185.5 24.26
24.5 186.5 24.34
24.5 187.5 24.35
24.5 188.5 24.19
24.5 189.5 23.91
24.5 190.5 23.72
24.5 191.5 23.73
24.5 192.5 24.03
24.5 193.5 24.24
24.5 194.5 24.38
24.5 195.5 24.42
24.5 196.5 24.47
24.5 197.5 24.38
24.5 198.5 24.28
24.5 199.5 24.21
24.5 200.5 24.18
24.5 201.5 24.13
24.5 202.5 24.12
24.5 203.5 24.05
24.5 204.5 23.73
24.5 205.5 23.6
24.5 206.5 23.5
24.5 207.5 23.35
24.5 208.5 23.14
24.5 209.5 22.97
23.5 180.5 24.66
23.5 181.5 24.7
23.5 182.5 24.66
23.5 183.5 24.62
23.5 184.5 24.79
23.5 185.5 24.8
23.5 186.5 24.8
23.5 187.5 24.78
23.5 188.5 24.85
23.5 189.5 24.65
23.5 190.5 24.5
23.5 191.5 24.48
23.5 192.5 24.62
23.5 193.5 24.8
23.5 194.5 24.95
23.5 195.5 25
23.5 196.5 24.97
23.5 197.5 24.88
23.5 198.5 24.8
23.5 199.5 24.76
23.5 200.5 24.65
23.5 201.5 24.53
23.5 202.5 24.41
23.5 203.5 24.26
23.5 204.5 23.92
23.5 205.5 23.79
23.5 206.5 23.68
23.5 207.5 23.52
23.5 208.5 23.32
23.5 209.5 23.12
22.5 180.5 24.95
22.5 181.5 25.01
22.5 182.5 25
22.5 183.5 24.98
22.5 184.5 25.18
22.5 185.5 25.21
22.5 186.5 25.21
22.5 187.5 25.23
22.5 188.5 25.39
22.5 189.5 25.27
22.5 190.5 25.17
22.5 191.5 25.16
22.5 192.5 25.22
22.5 193.5 25.31
22.5 194.5 25.37
22.5 195.5 25.35
22.5 196.5 25.29
22.5 197.5 25.21
22.5 198.5 25.18
22.5 199.5 25.19
22.5 200.5 25.08
22.5 201.5 24.92
22.5 202.5 24.73
22.5 203.5 24.49
22.5 204.5 24.09
22.5 205.5 23.9
22.5 206.5 23.75
22.5 207.5 23.58
22.5 208.5 23.44
22.5 209.5 23.28
21.5 180.5 25.31
21.5 181.5 25.35
21.5 182.5 25.36
21.5 183.5 25.34
21.5 184.5 25.48
21.5 185.5 25.52
21.5 186.5 25.56
21.5 187.5 25.62
21.5 188.5 25.79
21.5 189.5 25.72
21.5 190.5 25.65
21.5 191.5 25.66
21.5 192.5 25.73
21.5 193.5 25.75
21.5 194.5 25.73
21.5 195.5 25.66
21.5 196.5 25.6
21.5 197.5 25.54
21.5 198.5 25.53
21.5 199.5 25.56
21.5 200.5 25.44
21.5 201.5 25.27
21.5 202.5 25.03
21.5 203.5 24.74
21.5 204.5 24.28
21.5 205.5 24.05
21.5 206.5 23.86
21.5 207.5 23.69
21.5 208.5 23.6
21.5 209.5 23.47
20.5 180.5 25.77
20.5 181.5 25.79
20.5 182.5 25.78
20.5 183.5 25.76
20.5 184.5 25.79
20.5 185.5 25.84
20.5 186.5 25.9
20.5 187.5 25.97
20.5 188.5 26.09
20.5 189.5 26.06
20.5 190.5 26.02
20.5 191.5 26.04
20.5 192.5 26.15
20.5 193.5 26.13
20.5 194.5 26.07
20.5 195.5 25.98
20.5 196.5 25.93
20.5 197.5 25.85
20.5 198.5 25.82
20.5 199.5 25.81
20.5 200.5 25.7
20.5 201.5 25.52
20.5 202.5 25.27
20.5 203.5 24.96
20.5 204.5 24.56
20.5 205.5 24.3
20.5 206.5 24.1
20.5 207.5 23.95
20.5 208.5 23.86
20.5 209.5 23.78
19.5 180.5 26.29
19.5 181.5 26.26
19.5 182.5 26.23
19.5 183.5 26.19
19.5 184.5 26.16
19.5 185.5 26.19
19.5 186.5 26.23
19.5 187.5 26.29
19.5 188.5 26.36
19.5 189.5 26.37
19.5 190.5 26.36
19.5 191.5 26.38
19.5 192.5 26.44
19.5 193.5 26.42
19.5 194.5 26.36
19.5 195.5 26.28
19.5 196.5 26.18
19.5 197.5 26.06
19.5 198.5 25.94
19.5 199.5 25.83
19.5 200.5 25.73
19.5 201.5 25.53
19.5 202.5 25.29
19.5 203.5 25.04
19.5 204.5 24.83
19.5 205.5 24.6
19.5 206.5 24.41
19.5 207.5 24.26
19.5 208.5 24.13
19.5 209.5 24.04
18.5 180.5 26.61
18.5 181.5 26.57
18.5 182.5 26.53
18.5 183.5 26.49
18.5 184.5 26.45
18.5 185.5 26.49
18.5 186.5 26.55
18.5 187.5 26.61
18.5 188.5 26.68
18.5 189.5 26.7
18.5 190.5 26.7
18.5 191.5 26.68
18.5 192.5 26.61
18.5 193.5 26.54
18.5 194.5 26.45
18.5 195.5 26.34
18.5 196.5 26.17
18.5 197.5 25.98
18.5 198.5 25.8
18.5 199.5 25.63
18.5 200.5 25.55
18.5 201.5 25.39
18.5 202.5 25.22
18.5 203.5 25.08
18.5 204.5 25
18.5 205.5 24.83
18.5 206.5 24.66
18.5 207.5 24.51
18.5 208.5 24.36
18.5 209.5 24.28
17.5 180.5 26.79
17.5 181.5 26.77
17.5 182.5 26.74
17.5 183.5 26.71
17.5 184.5 26.68
17.5 185.5 26.74
17.5 186.5 26.79
17.5 187.5 26.86
17.5 188.5 26.93
17.5 189.5 26.95
17.5 190.5 26.92
17.5 191.5 26.87
17.5 192.5 26.67
17.5 193.5 26.56
17.5 194.5 26.44
17.5 195.5 26.31
17.5 196.5 26.12
17.5 197.5 25.9
17.5 198.5 25.69
17.5 199.5 25.48
17.5 200.5 25.41
17.5 201.5 25.29
17.5 202.5 25.2
17.5 203.5 25.14
17.5 204.5 25.12
17.5 205.5 25
17.5 206.5 24.87
17.5 207.5 24.73
17.5 208.5 24.59
17.5 209.5 24.49
16.5 180.5 26.9
16.5 181.5 26.91
16.5 182.5 26.91
16.5 183.5 26.91
16.5 184.5 26.91
16.5 185.5 26.96
16.5 186.5 27.01
16.5 187.5 27.07
16.5 188.5 27.12
16.5 189.5 27.11
16.5 190.5 27.05
16.5 191.5 26.96
16.5 192.5 26.7
16.5 193.5 26.56
16.5 194.5 26.43
16.5 195.5 26.29
16.5 196.5 26.13
16.5 197.5 25.94
16.5 198.5 25.74
16.5 199.5 25.55
16.5 200.5 25.48
16.5 201.5 25.39
16.5 202.5 25.34
16.5 203.5 25.31
16.5 204.5 25.27
16.5 205.5 25.16
16.5 206.5 25.04
16.5 207.5 24.93
16.5 208.5 24.83
16.5 209.5 24.74
15.5 180.5 27.05
15.5 181.5 27.09
15.5 182.5 27.11
15.5 183.5 27.13
15.5 184.5 27.18
15.5 185.5 27.21
15.5 186.5 27.23
15.5 187.5 27.26
15.5 188.5 27.27
15.5 189.5 27.23
15.5 190.5 27.16
15.5 191.5 27.06
15.5 192.5 26.82
15.5 193.5 26.68
15.5 194.5 26.54
15.5 195.5 26.41
15.5 196.5 26.29
15.5 197.5 26.15
15.5 198.5 25.99
15.5 199.5 25.84
15.5 200.5 25.71
15.5 201.5 25.61
15.5 202.5 25.55
15.5 203.5 25.49
15.5 204.5 25.42
15.5 205.5 25.32
15.5 206.5 25.23
15.5 207.5 25.16
15.5 208.5 25.11
15.5 209.5 25.04
14.5 180.5 27.25
14.5 181.5 27.29
14.5 182.5 27.32
14.5 183.5 27.35
14.5 184.5 27.4
14.5 185.5 27.42
14.5 186.5 27.41
14.5 187.5 27.41
14.5 188.5 27.39
14.5 189.5 27.33
14.5 190.5 27.25
14.5 191.5 27.14
14.5 192.5 26.94
14.5 193.5 26.81
14.5 194.5 26.67
14.5 195.5 26.56
14.5 196.5 26.43
14.5 197.5 26.32
14.5 198.5 26.21
14.5 199.5 26.1
14.5 200.5 25.94
14.5 201.5 25.89
14.5 202.5 25.85
14.5 203.5 25.79
14.5 204.5 25.74
14.5 205.5 25.66
14.5 206.5 25.6
14.5 207.5 25.59
14.5 208.5 25.62
14.5 209.5 25.56
13.5 180.5 27.45
13.5 181.5 27.47
13.5 182.5 27.49
13.5 183.5 27.5
13.5 184.5 27.54
13.5 185.5 27.53
13.5 186.5 27.5
13.5 187.5 27.48
13.5 188.5 27.44
13.5 189.5 27.38
13.5 190.5 27.3
13.5 191.5 27.21
13.5 192.5 27.04
13.5 193.5 26.92
13.5 194.5 26.81
13.5 195.5 26.71
13.5 196.5 26.56
13.5 197.5 26.48
13.5 198.5 26.41
13.5 199.5 26.34
13.5 200.5 26.18
13.5 201.5 26.18
13.5 202.5 26.19
13.5 203.5 26.15
13.5 204.5 26.12
13.5 205.5 26.07
13.5 206.5 26.05
13.5 207.5 26.08
13.5 208.5 26.14
13.5 209.5 26.08
12.5 180.5 27.63
12.5 181.5 27.62
12.5 182.5 27.61
12.5 183.5 27.6
12.5 184.5 27.6
12.5 185.5 27.58
12.5 186.5 27.53
12.5 187.5 27.49
12.5 188.5 27.46
12.5 189.5 27.4
12.5 190.5 27.34
12.5 191.5 27.26
12.5 192.5 27.14
12.5 193.5 27.05
12.5 194.5 26.97
12.5 195.5 26.89
12.5 196.5 26.73
12.5 197.5 26.67
12.5 198.5 26.63
12.5 199.5 26.59
12.5 200.5 26.48
12.5 201.5 26.53
12.5 202.5 26.57
12.5 203.5 26.57
12.5 204.5 26.57
12.5 205.5 26.54
12.5 206.5 26.54
12.5 207.5 26.57
12.5 208.5 26.57
12.5 209.5 26.49
11.5 180.5 27.81
11.5 181.5 27.78
11.5 182.5 27.76
11.5 183.5 27.74
11.5 184.5 27.71
11.5 185.5 27.68
11.5 186.5 27.63
11.5 187.5 27.6
11.5 188.5 27.63
11.5 189.5 27.6
11.5 190.5 27.57
11.5 191.5 27.52
11.5 192.5 27.4
11.5 193.5 27.31
11.5 194.5 27.22
11.5 195.5 27.12
11.5 196.5 26.99
11.5 197.5 26.94
11.5 198.5 26.92
11.5 199.5 26.91
11.5 200.5 26.95
11.5 201.5 27.01
11.5 202.5 27.07
11.5 203.5 27.08
11.5 204.5 27.07
11.5 205.5 27.02
11.5 206.5 26.97
11.5 207.5 26.94
11.5 208.5 26.79
11.5 209.5 26.7
10.5 180.5 27.9
10.5 181.5 27.86
10.5 182.5 27.83
10.5 183.5 27.8
10.5 184.5 27.78
10.5 185.5 27.74
10.5 186.5 27.7
10.5 187.5 27.66
10.5 188.5 27.72
10.5 189.5 27.71
10.5 190.5 27.69
10.5 191.5 27.67
10.5 192.5 27.6
10.5 193.5 27.53
10.5 194.5 27.47
10.5 195.5 27.4
10.5 196.5 27.33
10.5 197.5 27.3
10.5 198.5 27.31
10.5 199.5 27.32
10.5 200.5 27.42
10.5 201.5 27.49
10.5 202.5 27.54
10.5 203.5 27.54
10.5 204.5 27.43
10.5 205.5 27.32
10.5 206.5 27.22
10.5 207.5 27.11
10.5 208.5 26.89
10.5 209.5 26.82
