39.5 180.5 13.61
39.5 181.5 13.71
39.5 182.5 13.8
39.5 183.5 13.88
39.5 184.5 14.2
39.5 185.5 13.98
39.5 186.5 13.69
39.5 187.5 13.4
39.5 188.5 13.15
39.5 189.5 13.12
39.5 190.5 13.19
39.5 191.5 13.18
39.5 192.5 12.84
39.5 193.5 12.89
39.5 194.5 13.03
39.5 195.5 13.07
39.5 196.5 12.64
39.5 197.5 12.53
39.5 198.5 12.53
39.5 199.5 12.53
39.5 200.5 12.48
39.5 201.5 12.52
39.5 202.5 12.61
39.5 203.5 12.76
39.5 204.5 13.04
39.5 205.5 13.21
39.5 206.5 13.42
39.5 207.5 13.72
39.5 208.5 14.25
39.5 209.5 14.51
38.5 180.5 14.74
38.5 181.5 14.9
38.5 182.5 15.01
38.5 183.5 15.1
38.5 184.5 15.44
38.5 185.5 15.22
38.5 186.5 14.94
38.5 187.5 14.64
38.5 188.5 14.28
38.5 189.5 14.24
38.5 190.5 14.31
38.5 191.5 14.25
38.5 192.5 13.77
38.5 193.5 13.73
38.5 194.5 13.85
38.5 195.5 13.85
38.5 196.5 13.32
38.5 197.5 13.18
38.5 198.5 13.17
38.5 199.5 13.19
38.5 200.5 13.23
38.5 201.5 13.31
38.5 202.5 13.42
38.5 203.5 13.58
38.5 204.5 13.88
38.5 205.5 14.07
38.5 206.5 14.3
38.5 207.5 14.61
38.5 208.5 15.11
38.5 209.5 15.35
37.5 180.5 15.86
37.5 181.5 16.02
37.5 182.5 16.12
37.5 183.5 16.16
37.5 184.5 16.42
37.5 185.5 16.21
37.5 186.5 15.95
37.5 187.5 15.66
37.5 188.5 15.22
37.5 189.5 15.13
37.5 190.5 15.16
37.5 191.5 15.07
37.5 192.5 14.49
37.5 193.5 14.4
37.5 194.5 14.48
37.5 195.5 14.51
37.5 196.5 14.05
37.5 197.5 13.93
37.5 198.5 13.91
37.5 199.5 13.95
37.5 200.5 14.09
37.5 201.5 14.2
37.5 202.5 14.32
37.5 203.5 14.5
37.5 204.5 14.83
37.5 205.5 15.05
37.5 206.5 15.29
37.5 207.5 15.58
37.5 208.5 15.98
37.5 209.5 16.19
36.5 180.5 17
36.5 181.5 17.07
36.5 182.5 17.09
36.5 183.5 17.03
36.5 184.5 17.11
36.5 185.5 16.9
36.5 186.5 16.69
36.5 187.5 16.44
36.5 188.5 16.02
36.5 189.5 15.86
36.5 190.5 15.82
36.5 191.5 15.67
36.5 192.5 15.09
36.5 193.5 14.99
36.5 194.5 15.09
36.5 195.5 15.17
36.5 196.5 14.9
36.5 197.5 14.82
36.5 198.5 14.8
36.5 199.5 14.85
36.5 200.5 15.06
36.5 201.5 15.21
36.5 202.5 15.34
36.5 203.5 15.54
36.5 204.5 15.89
36.5 205.5 16.11
36.5 206.5 16.32
36.5 207.5 16.55
36.5 208.5 16.81
36.5 209.5 16.99
35.5 180.5 18.24
35.5 181.5 18.13
35.5 182.5 18
35.5 183.5 17.76
35.5 184.5 17.53
35.5 185.5 17.31
35.5 186.5 17.16
35.5 187.5 17
35.5 188.5 16.75
35.5 189.5 16.51
35.5 190.5 16.35
35.5 191.5 16.14
35.5 192.5 15.67
35.5 193.5 15.63
35.5 194.5 15.77
35.5 195.5 15.93
35.5 196.5 15.86
35.5 197.5 15.8
35.5 198.5 15.76
35.5 199.5 15.78
35.5 200.5 16.03
35.5 201.5 16.2
35.5 202.5 16.38
35.5 203.5 16.63
35.5 204.5 17
35.5 205.5 17.19
35.5 206.5 17.34
35.5 207.5 17.48
35.5 208.5 17.62
35.5 209.5 17.77
34.5 180.5 19.26
34.5 181.5 19.07
34.5 182.5 18.87
34.5 183.5 18.54
34.5 184.5 18.14
34.5 185.5 17.89
34.5 186.5 17.74
34.5 187.5 17.63
34.5 188.5 17.58
34.5 189.5 17.34
34.5 190.5 17.15
34.5 191.5 16.96
34.5 192.5 16.71
34.5 193.5 16.71
34.5 194.5 16.82
34.5 195.5 16.98
34.5 196.5 16.89
34.5 197.5 16.85
34.5 198.5 16.82
34.5 199.5 16.84
34.5 200.5 17.03
34.5 201.5 17.19
34.5 202.5 17.36
34.5 203.5 17.6
34.5 204.5 17.97
34.5 205.5 18.15
34.5 206.5 18.29
34.5 207.5 18.39
34.5 208.5 18.47
34.5 209.5 18.56
33.5 180.5 20.17
33.5 181.5 19.99
33.5 182.5 19.78
33.5 183.5 19.45
33.5 184.5 19.01
33.5 185.5 18.75
33.5 186.5 18.6
33.5 187.5 18.51
33.5 188.5 18.6
33.5 189.5 18.39
33.5 190.5 18.2
33.5 191.5 18.05
33.5 192.5 17.99
33.5 193.5 17.99
33.5 194.5 18.04
33.5 195.5 18.12
33.5 196.5 18
33.5 197.5 17.98
33.5 198.5 17.97
33.5 199.5 17.97
33.5 200.5 18.05
33.5 201.5 18.15
33.5 202.5 18.29
33.5 203.5 18.48
33.5 204.5 18.8
33.5 205.5 18.97
33.5 206.5 19.11
33.5 207.5 19.22
33.5 208.5 19.3
33.5 209.5 19.36
32.5 180.5 20.95
32.5 181.5 20.84
32.5 182.5 20.69
32.5 183.5 20.44
32.5 184.5 20.1
32.5 185.5 19.87
32.5 186.5 19.71
32.5 187.5 19.63
32.5 188.5 19.77
32.5 189.5 19.59
32.5 190.5 19.4
32.5 191.5 19.27
32.5 192.5 19.32
32.5 193.5 19.29
32.5 194.5 19.26
32.5 195.5 19.26
32.5 196.5 19.14
32.5 197.5 19.13
32.5 198.5 19.13
32.5 199.5 19.13
32.5 200.5 19.07
32.5 201.5 19.12
32.5 202.5 19.21
32.5 203.5 19.33
32.5 204.5 19.56
32.5 205.5 19.7
32.5 206.5 19.84
32.5 207.5 19.97
32.5 208.5 20.09
32.5 209.5 20.14
31.5 180.5 21.49
31.5 181.5 21.49
31.5 182.5 21.48
31.5 183.5 21.43
31.5 184.5 21.29
31.5 185.5 21.13
31.5 186.5 20.96
31.5 187.5 20.87
31.5 188.5 20.9
31.5 189.5 20.72
31.5 190.5 20.52
31.5 191.5 20.36
31.5 192.5 20.29
31.5 193.5 20.27
31.5 194.5 20.23
31.5 195.5 20.22
31.5 196.5 20.27
31.5 197.5 20.21
31.5 198.5 20.16
31.5 199.5 20.1
31.5 200.5 19.97
31.5 201.5 20
31.5 202.5 20.09
31.5 203.5 20.21
31.5 204.5 20.33
31.5 205.5 20.43
31.5 206.5 20.55
31.5 207.5 20.69
31.5 208.5 20.85
31.5 209.5 20.92
30.5 180.5 22.11
30.5 181.5 22.17
30.5 182.5 22.25
30.5 183.5 22.32
30.5 184.5 22.39
30.5 185.5 22.31
30.5 186.5 22.17
30.5 187.5 22.06
30.5 188.5 21.98
30.5 189.5 21.78
30.5 190.5 21.56
30.5 191.5 21.4
30.5 192.5 21.3
30.5 193.5 21.29
30.5 194.5 21.23
30.5 195.5 21.2
30.5 196.5 21.35
30.5 197.5 21.26
30.5 198.5 21.17
30.5 199.5 21.08
30.5 200.5 21.03
30.5 201.5 21.03
30.5 202.5 21.09
30.5 203.5 21.18
30.5 204.5 21.25
30.5 205.5 21.29
30.5 206.5 21.35
30.5 207.5 21.47
30.5 208.5 21.61
30.5 209.5 21.69
29.5 180.5 22.88
29.5 181.5 22.95
29.5 182.5 23.06
29.5 183.5 23.18
29.5 184.5 23.33
29.5 185.5 23.31
29.5 186.5 23.19
29.5 187.5 23.05
29.5 188.5 22.85
29.5 189.5 22.62
29.5 190.5 22.41
29.5 191.5 22.28
29.5 192.5 22.19
29.5 193.5 22.21
29.5 194.5 22.18
29.5 195.5 22.16
29.5 196.5 22.34
29.5 197.5 22.23
29.5 198.5 22.11
29.5 199.5 22
29.5 200.5 22.06
29.5 201.5 22.06
29.5 202.5 22.09
29.5 203.5 22.15
29.5 204.5 22.2
29.5 205.5 22.17
29.5 206.5 22.17
29.5 207.5 22.23
29.5 208.5 22.32
29.5 209.5 22.39
28.5 180.5 23.71
28.5 181.5 23.76
28.5 182.5 23.88
28.5 183.5 23.97
28.5 184.5 24.05
28.5 185.5 24.02
28.5 186.5 23.9
28.5 187.5 23.75
28.5 188.5 23.47
28.5 189.5 23.24
28.5 190.5 23.06
28.5 191.5 22.98
28.5 192.5 22.94
28.5 193.5 23.01
28.5 194.5 23.03
28.5 195.5 23.04
28.5 196.5 23.19
28.5 197.5 23.08
28.5 198.5 22.93
28.5 199.5 22.81
28.5 200.5 22.97
28.5 201.5 22.98
28.5 202.5 23
28.5 203.5 23.05
28.5 204.5 23.1
28.5 205.5 23.01
28.5 206.5 22.94
28.5 207.5 22.92
28.5 208.5 22.92
28.5 209.5 22.99
27.5 180.5 24.52
27.5 181.5 24.54
27.5 182.5 24.62
27.5 183.5 24.65
27.5 184.5 24.6
27.5 185.5 24.53
27.5 186.5 24.44
27.5 187.5 24.29
27.5 188.5 24.01
27.5 189.5 23.82
27.5 190.5 23.71
27.5 191.5 23.68
27.5 192.5 23.67
27.5 193.5 23.78
27.5 194.5 23.84
27.5 195.5 23.88
27.5 196.5 23.91
27.5 197.5 23.75
27.5 198.5 23.55
27.5 199.5 23.4
27.5 200.5 23.6
27.5 201.5 23.67
27.5 202.5 23.73
27.5 203.5 23.82
27.5 204.5 23.86
27.5 205.5 23.73
27.5 206.5 23.59
27.5 207.5 23.52
27.5 208.5 23.46
27.5 209.5 23.52
26.5 180.5 25.34
26.5 181.5 25.33
26.5 182.5 25.34
26.5 183.5 25.28
26.5 184.5 25.12
26.5 185.5 25.02
26.5 186.5 24.94
26.5 187.5 24.83
26.5 188.5 24.62
26.5 189.5 24.49
26.5 190.5 24.42
26.5 191.5 24.4
26.5 192.5 24.31
26.5 193.5 24.38
26.5 194.5 24.43
26.5 195.5 24.48
26.5 196.5 24.46
26.5 197.5 24.33
26.5 198.5 24.15
26.5 199.5 24.01
26.5 200.5 24.18
26.5 201.5 24.23
26.5 202.5 24.26
26.5 203.5 24.32
26.5 204.5 24.37
26.5 205.5 24.24
26.5 206.5 24.08
26.5 207.5 23.98
26.5 208.5 23.95
26.5 209.5 24
25.5 180.5 25.99
25.5 181.5 25.96
25.5 182.5 25.92
25.5 183.5 25.8
25.5 184.5 25.56
25.5 185.5 25.47
25.5 186.5 25.41
25.5 187.5 25.33
25.5 188.5 25.17
25.5 189.5 25.08
25.5 190.5 25.04
25.5 191.5 25.01
25.5 192.5 24.85
25.5 193.5 24.86
25.5 194.5 24.88
25.5 195.5 24.9
25.5 196.5 24.88
25.5 197.5 24.77
25.5 198.5 24.63
25.5 199.5 24.53
25.5 200.5 24.62
25.5 201.5 24.63
25.5 202.5 24.61
25.5 203.5 24.63
25.5 204.5 24.72
25.5 205.5 24.6
25.5 206.5 24.44
25.5 207.5 24.34
25.5 208.5 24.38
25.5 209.5 24.4
24.5 180.5 26.37
24.5 181.5 26.33
24.5 182.5 26.27
24.5 183.5 26.12
24.5 184.5 25.83
24.5 185.5 25.74
24.5 186.5 25.71
24.5 187.5 25.67
24.5 188.5 25.55
24.5 189.5 25.51
24.5 190.5 25.49
24.5 191.5 25.45
24.5 192.5 25.27
24.5 193.5 25.23
24.5 194.5 25.22
24.5 195.5 25.22
24.5 196.5 25.21
24.5 197.5 25.13
24.5 198.5 25.02
24.5 199.5 24.93
24.5 200.5 24.94
24.5 201.5 24.91
24.5 202.5 24.85
24.5 203.5 24.83
24.5 204.5 24.9
24.5 205.5 24.8
24.5 206.5 24.66
24.5 207.5 24.59
24.5 208.5 24.68
24.5 209.5 24.69
23.5 180.5 26.5
23.5 181.5 26.48
23.5 182.5 26.41
23.5 183.5 26.23
23.5 184.5 25.9
23.5 185.5 25.81
23.5 186.5 25.8
23.5 187.5 25.82
23.5 188.5 25.72
23.5 189.5 25.71
23.5 190.5 25.72
23.5 191.5 25.69
23.5 192.5 25.6
23.5 193.5 25.58
23.5 194.5 25.57
23.5 195.5 25.57
23.5 196.5 25.57
23.5 197.5 25.49
23.5 198.5 25.37
23.5 199.5 25.26
23.5 200.5 25.21
23.5 201.5 25.15
23.5 202.5 25.05
23.5 203.5 24.97
23.5 204.5 25
23.5 205.5 24.94
23.5 206.5 24.85
23.5 207.5 24.82
23.5 208.5 24.91
23.5 209.5 24.88
22.5 180.5 26.54
22.5 181.5 26.51
22.5 182.5 26.42
22.5 183.5 26.22
22.5 184.5 25.94
22.5 185.5 25.84
22.5 186.5 25.83
22.5 187.5 25.86
22.5 188.5 25.84
22.5 189.5 25.86
22.5 190.5 25.89
22.5 191.5 25.89
22.5 192.5 25.87
22.5 193.5 25.88
22.5 194.5 25.88
22.5 195.5 25.92
22.5 196.5 25.97
22.5 197.5 25.92
22.5 198.5 25.8
22.5 199.5 25.69
22.5 200.5 25.61
22.5 201.5 25.51
22.5 202.5 25.36
22.5 203.5 25.23
22.5 204.5 25.18
22.5 205.5 25.1
22.5 206.5 25.02
22.5 207.5 25
22.5 208.5 25.07
22.5 209.5 25.02
21.5 180.5 26.62
21.5 181.5 26.57
21.5 182.5 26.44
21.5 183.5 26.23
21.5 184.5 26.06
21.5 185.5 25.96
21.5 186.5 25.95
21.5 187.5 26.01
21.5 188.5 26.06
21.5 189.5 26.11
21.5 190.5 26.17
21.5 191.5 26.19
21.5 192.5 26.18
21.5 193.5 26.22
21.5 194.5 26.22
21.5 195.5 26.26
21.5 196.5 26.33
21.5 197.5 26.29
21.5 198.5 26.19
21.5 199.5 26.08
21.5 200.5 26.01
21.5 201.5 25.88
21.5 202.5 25.71
21.5 203.5 25.54
21.5 204.5 25.44
21.5 205.5 25.34
21.5 206.5 25.25
21.5 207.5 25.2
21.5 208.5 25.21
21.5 209.5 25.13
20.5 180.5 26.81
20.5 181.5 26.74
20.5 182.5 26.59
20.5 183.5 26.39
20.5 184.5 26.29
20.5 185.5 26.22
20.5 186.5 26.21
20.5 187.5 26.3
20.5 188.5 26.43
20.5 189.5 26.5
20.5 190.5 26.56
20.5 191.5 26.59
20.5 192.5 26.53
20.5 193.5 26.55
20.5 194.5 26.53
20.5 195.5 26.53
20.5 196.5 26.58
20.5 197.5 26.53
20.5 198.5 26.42
20.5 199.5 26.32
20.5 200.5 26.31
20.5 201.5 26.2
20.5 202.5 26.03
20.5 203.5 25.85
20.5 204.5 25.74
20.5 205.5 25.61
20.5 206.5 25.49
20.5 207.5 25.4
20.5 208.5 25.29
20.5 209.5 25.15
19.5 180.5 27.07
19.5 181.5 27.03
19.5 182.5 26.91
19.5 183.5 26.74
19.5 184.5 26.66
19.5 185.5 26.59
19.5 186.5 26.59
19.5 187.5 26.68
19.5 188.5 26.8
19.5 189.5 26.86
19.5 190.5 26.89
19.5 191.5 26.88
19.5 192.5 26.79
19.5 193.5 26.78
19.5 194.5 26.72
19.5 195.5 26.66
19.5 196.5 26.64
19.5 197.5 26.54
19.5 198.5 26.43
19.5 199.5 26.36
19.5 200.5 26.46
19.5 201.5 26.39
19.5 202.5 26.26
19.5 203.5 26.12
19.5 204.5 25.99
19.5 205.5 25.84
19.5 206.5 25.69
19.5 207.5 25.53
19.5 208.5 25.3
19.5 209.5 25.1
18.5 180.5 27.23
18.5 181.5 27.19
18.5 182.5 27.09
18.5 183.5 26.97
18.5 184.5 26.9
18.5 185.5 26.86
18.5 186.5 26.86
18.5 187.5 26.95
18.5 188.5 27.04
18.5 189.5 27.08
18.5 190.5 27.08
18.5 191.5 27.03
18.5 192.5 26.91
18.5 193.5 26.84
18.5 194.5 26.75
18.5 195.5 26.63
18.5 196.5 26.54
18.5 197.5 26.42
18.5 198.5 26.33
18.5 199.5 26.29
18.5 200.5 26.42
18.5 201.5 26.37
18.5 202.5 26.27
18.5 203.5 26.17
18.5 204.5 26.02
18.5 205.5 25.86
18.5 206.5 25.7
18.5 207.5 25.53
18.5 208.5 25.25
18.5 209.5 25.05
17.5 180.5 27.32
17.5 181.5 27.28
17.5 182.5 27.21
17.5 183.5 27.12
17.5 184.5 27.08
17.5 185.5 27.05
17.5 186.5 27.05
17.5 187.5 27.1
17.5 188.5 27.13
17.5 189.5 27.13
17.5 190.5 27.09
17.5 191.5 27.01
17.5 192.5 26.88
17.5 193.5 26.78
17.5 194.5 26.66
17.5 195.5 26.51
17.5 196.5 26.4
17.5 197.5 26.29
17.5 198.5 26.23
17.5 199.5 26.21
17.5 200.5 26.28
17.5 201.5 26.23
17.5 202.5 26.16
17.5 203.5 26.07
17.5 204.5 25.92
17.5 205.5 25.78
17.5 206.5 25.64
17.5 207.5 25.5
17.5 208.5 25.28
17.5 209.5 25.13
16.5 180.5 27.37
16.5 181.5 27.33
16.5 182.5 27.28
16.5 183.5 27.23
16.5 184.5 27.21
16.5 185.5 27.17
16.5 186.5 27.16
16.5 187.5 27.16
16.5 188.5 27.11
16.5 189.5 27.07
16.5 190.5 27
16.5 191.5 26.9
16.5 192.5 26.78
16.5 193.5 26.66
16.5 194.5 26.55
16.5 195.5 26.42
16.5 196.5 26.34
16.5 197.5 26.26
16.5 198.5 26.22
16.5 199.5 26.2
16.5 200.5 26.2
16.5 201.5 26.14
16.5 202.5 26.08
16.5 203.5 26
16.5 204.5 25.84
16.5 205.5 25.73
16.5 206.5 25.64
16.5 207.5 25.57
16.5 208.5 25.47
16.5 209.5 25.4
15.5 180.5 27.45
15.5 181.5 27.39
15.5 182.5 27.35
15.5 183.5 27.31
15.5 184.5 27.31
15.5 185.5 27.27
15.5 186.5 27.24
15.5 187.5 27.2
15.5 188.5 27.12
15.5 189.5 27.03
15.5 190.5 26.94
15.5 191.5 26.82
15.5 192.5 26.69
15.5 193.5 26.59
15.5 194.5 26.51
15.5 195.5 26.44
15.5 196.5 26.39
15.5 197.5 26.33
15.5 198.5 26.3
15.5 199.5 26.29
15.5 200.5 26.24
15.5 201.5 26.21
15.5 202.5 26.16
15.5 203.5 26.07
15.5 204.5 25.89
15.5 205.5 25.82
15.5 206.5 25.79
15.5 207.5 25.8
15.5 208.5 25.83
15.5 209.5 25.85
14.5 180.5 27.6
14.5 181.5 27.51
14.5 182.5 27.45
14.5 183.5 27.39
14.5 184.5 27.33
14.5 185.5 27.29
14.5 186.5 27.26
14.5 187.5 27.22
14.5 188.5 27.13
14.5 189.5 27.03
14.5 190.5 26.92
14.5 191.5 26.79
14.5 192.5 26.66
14.5 193.5 26.57
14.5 194.5 26.51
14.5 195.5 26.48
14.5 196.5 26.45
14.5 197.5 26.41
14.5 198.5 26.39
14.5 199.5 26.38
14.5 200.5 26.34
14.5 201.5 26.32
14.5 202.5 26.28
14.5 203.5 26.2
14.5 204.5 26.05
14.5 205.5 25.97
14.5 206.5 25.93
14.5 207.5 25.96
14.5 208.5 26.05
14.5 209.5 26.11
13.5 180.5 27.77
13.5 181.5 27.66
13.5 182.5 27.58
13.5 183.5 27.49
13.5 184.5 27.38
13.5 185.5 27.33
13.5 186.5 27.31
13.5 187.5 27.29
13.5 188.5 27.21
13.5 189.5 27.1
13.5 190.5 26.99
13.5 191.5 26.85
13.5 192.5 26.72
13.5 193.5 26.64
13.5 194.5 26.61
13.5 195.5 26.58
13.5 196.5 26.56
13.5 197.5 26.51
13.5 198.5 26.48
13.5 199.5 26.47
13.5 200.5 26.44
13.5 201.5 26.43
13.5 202.5 26.4
13.5 203.5 26.35
13.5 204.5 26.24
13.5 205.5 26.14
13.5 206.5 26.05
13.5 207.5 26.03
13.5 208.5 26.12
13.5 209.5 26.18
12.5 180.5 27.93
12.5 181.5 27.83
12.5 182.5 27.74
12.5 183.5 27.63
12.5 184.5 27.5
12.5 185.5 27.44
12.5 186.5 27.43
12.5 187.5 27.42
12.5 188.5 27.34
12.5 189.5 27.24
12.5 190.5 27.12
12.5 191.5 26.98
12.5 192.5 26.85
12.5 193.5 26.79
12.5 194.5 26.77
12.5 195.5 26.77
12.5 196.5 26.75
12.5 197.5 26.68
12.5 198.5 26.64
12.5 199.5 26.61
12.5 200.5 26.59
12.5 201.5 26.58
12.5 202.5 26.56
12.5 203.5 26.53
12.5 204.5 26.43
12.5 205.5 26.29
12.5 206.5 26.14
12.5 207.5 26.05
12.5 208.5 26.09
12.5 209.5 26.12
11.5 180.5 28.1
11.5 181.5 28.02
11.5 182.5 27.94
11.5 183.5 27.82
11.5 184.5 27.68
11.5 185.5 27.63
11.5 186.5 27.62
11.5 187.5 27.63
11.5 188.5 27.53
11.5 189.5 27.44
11.5 190.5 27.33
11.5 191.5 27.2
11.5 192.5 27.06
11.5 193.5 27.03
11.5 194.5 27.03
11.5 195.5 27.07
11.5 196.5 27.06
11.5 197.5 27
11.5 198.5 26.93
11.5 199.5 26.89
11.5 200.5 26.9
11.5 201.5 26.9
11.5 202.5 26.89
11.5 203.5 26.85
11.5 204.5 26.71
11.5 205.5 26.52
11.5 206.5 26.3
11.5 207.5 26.12
11.5 208.5 26.14
11.5 209.5 26.15
10.5 180.5 28.25
10.5 181.5 28.2
10.5 182.5 28.15
10.5 183.5 28.07
10.5 184.5 27.92
10.5 185.5 27.87
10.5 186.5 27.87
10.5 187.5 27.88
10.5 188.5 27.74
10.5 189.5 27.66
10.5 190.5 27.57
10.5 191.5 27.47
10.5 192.5 27.38
10.5 193.5 27.36
10.5 194.5 27.39
10.5 195.5 27.46
10.5 196.5 27.5
10.5 197.5 27.47
10.5 198.5 27.4
10.5 199.5 27.35
10.5 200.5 27.37
10.5 201.5 27.37
10.5 202.5 27.35
10.5 203.5 27.3
10.5 204.5 27.13
10.5 205.5 26.91
10.5 206.5 26.67
10.5 207.5 26.47
10.5 208.5 26.5
10.5 209.5 26.52
