39.5 180.5 10.85
39.5 181.5 10.75
39.5 182.5 10.67
39.5 183.5 10.77
39.5 184.5 11.13
39.5 185.5 11.11
39.5 186.5 10.83
39.5 187.5 10.67
39.5 188.5 10.86
39.5 189.5 10.78
39.5 190.5 10.56
39.5 191.5 10.4
39.5 192.5 10.62
39.5 193.5 10.61
39.5 194.5 10.55
39.5 195.5 10.43
39.5 196.5 10.24
39.5 197.5 10.07
39.5 198.5 9.96
39.5 199.5 9.94
39.5 200.5 10.07
39.5 201.5 10.09
39.5 202.5 10.07
39.5 203.5 10.1
39.5 204.5 10.41
39.5 205.5 10.38
39.5 206.5 10.3
39.5 207.5 10.35
39.5 208.5 10.65
39.5 209.5 10.82
38.5 180.5 12.07
38.5 181.5 12
38.5 182.5 11.97
38.5 183.5 12.08
38.5 184.5 12.32
38.5 185.5 12.23
38.5 186.5 11.92
38.5 187.5 11.74
38.5 188.5 11.94
38.5 189.5 11.83
38.5 190.5 11.55
38.5 191.5 11.34
38.5 192.5 11.54
38.5 193.5 11.52
38.5 194.5 11.45
38.5 195.5 11.29
38.5 196.5 11.02
38.5 197.5 10.8
38.5 198.5 10.67
38.5 199.5 10.65
38.5 200.5 10.82
38.5 201.5 10.82
38.5 202.5 10.78
38.5 203.5 10.81
38.5 204.5 11.1
38.5 205.5 11.09
38.5 206.5 11.02
38.5 207.5 11.05
38.5 208.5 11.33
38.5 209.5 11.48
37.5 180.5 13.17
37.5 181.5 13.07
37.5 182.5 13.08
37.5 183.5 13.17
37.5 184.5 13.21
37.5 185.5 13.07
37.5 186.5 12.76
37.5 187.5 12.56
37.5 188.5 12.69
37.5 189.5 12.52
37.5 190.5 12.19
37.5 191.5 11.94
37.5 192.5 12.12
37.5 193.5 12.09
37.5 194.5 12.03
37.5 195.5 11.89
37.5 196.5 11.66
37.5 197.5 11.47
37.5 198.5 11.36
37.5 199.5 11.35
37.5 200.5 11.53
37.5 201.5 11.52
37.5 202.5 11.47
37.5 203.5 11.48
37.5 204.5 11.72
37.5 205.5 11.73
37.5 206.5 11.68
37.5 207.5 11.73
37.5 208.5 12.03
37.5 209.5 12.17
36.5 180.5 14.02
36.5 181.5 13.83
36.5 182.5 13.85
36.5 183.5 13.91
36.5 184.5 13.79
36.5 185.5 13.6
36.5 186.5 13.31
36.5 187.5 13.11
36.5 188.5 13.16
36.5 189.5 12.93
36.5 190.5 12.57
36.5 191.5 12.32
36.5 192.5 12.46
36.5 193.5 12.44
36.5 194.5 12.41
36.5 195.5 12.33
36.5 196.5 12.2
36.5 197.5 12.08
36.5 198.5 12.01
36.5 199.5 12.03
36.5 200.5 12.19
36.5 201.5 12.2
36.5 202.5 12.16
36.5 203.5 12.17
36.5 204.5 12.35
36.5 205.5 12.35
36.5 206.5 12.32
36.5 207.5 12.38
36.5 208.5 12.73
36.5 209.5 12.88
35.5 180.5 14.66
35.5 181.5 14.44
35.5 182.5 14.5
35.5 183.5 14.59
35.5 184.5 14.4
35.5 185.5 14.18
35.5 186.5 13.91
35.5 187.5 13.69
35.5 188.5 13.62
35.5 189.5 13.36
35.5 190.5 13.01
35.5 191.5 12.77
35.5 192.5 12.88
35.5 193.5 12.89
35.5 194.5 12.88
35.5 195.5 12.85
35.5 196.5 12.85
35.5 197.5 12.78
35.5 198.5 12.73
35.5 199.5 12.76
35.5 200.5 12.89
35.5 201.5 12.94
35.5 202.5 12.94
35.5 203.5 12.99
35.5 204.5 13.15
35.5 205.5 13.15
35.5 206.5 13.1
35.5 207.5 13.16
35.5 208.5 13.52
35.5 209.5 13.66
34.5 180.5 15.05
34.5 181.5 14.86
34.5 182.5 14.97
34.5 183.5 15.09
34.5 184.5 14.98
34.5 185.5 14.76
34.5 186.5 14.51
34.5 187.5 14.3
34.5 188.5 14.13
34.5 189.5 13.92
34.5 190.5 13.66
34.5 191.5 13.49
34.5 192.5 13.59
34.5 193.5 13.61
34.5 194.5 13.64
34.5 195.5 13.64
34.5 196.5 13.62
34.5 197.5 13.58
34.5 198.5 13.55
34.5 199.5 13.59
34.5 200.5 13.71
34.5 201.5 13.78
34.5 202.5 13.82
34.5 203.5 13.9
34.5 204.5 14.05
34.5 205.5 14.06
34.5 206.5 14.03
34.5 207.5 14.1
34.5 208.5 14.45
34.5 209.5 14.58
33.5 180.5 15.48
33.5 181.5 15.43
33.5 182.5 15.59
33.5 183.5 15.73
33.5 184.5 15.71
33.5 185.5 15.51
33.5 186.5 15.29
33.5 187.5 15.09
33.5 188.5 14.83
33.5 189.5 14.69
33.5 190.5 14.54
33.5 191.5 14.47
33.5 192.5 14.5
33.5 193.5 14.55
33.5 194.5 14.6
33.5 195.5 14.59
33.5 196.5 14.49
33.5 197.5 14.44
33.5 198.5 14.43
33.5 199.5 14.46
33.5 200.5 14.55
33.5 201.5 14.63
33.5 202.5 14.69
33.5 203.5 14.79
33.5 204.5 14.94
33.5 205.5 14.96
33.5 206.5 14.96
33.5 207.5 15.03
33.5 208.5 15.3
33.5 209.5 15.42
32.5 180.5 16.06
32.5 181.5 16.18
32.5 182.5 16.38
32.5 183.5 16.55
32.5 184.5 16.63
32.5 185.5 16.45
32.5 186.5 16.24
32.5 187.5 16.02
32.5 188.5 15.73
32.5 189.5 15.66
32.5 190.5 15.61
32.5 191.5 15.61
32.5 192.5 15.53
32.5 193.5 15.56
32.5 194.5 15.61
32.5 195.5 15.58
32.5 196.5 15.38
32.5 197.5 15.32
32.5 198.5 15.31
32.5 199.5 15.33
32.5 200.5 15.4
32.5 201.5 15.47
32.5 202.5 15.53
32.5 203.5 15.62
32.5 204.5 15.78
32.5 205.5 15.82
32.5 206.5 15.83
32.5 207.5 15.89
32.5 208.5 16.04
32.5 209.5 16.11
31.5 180.5 16.65
31.5 181.5 16.9
31.5 182.5 17.17
31.5 183.5 17.37
31.5 184.5 17.55
31.5 185.5 17.32
31.5 186.5 17.08
31.5 187.5 16.86
31.5 188.5 16.69
31.5 189.5 16.7
31.5 190.5 16.76
31.5 191.5 16.81
31.5 192.5 16.68
31.5 193.5 16.67
31.5 194.5 16.68
31.5 195.5 16.61
31.5 196.5 16.34
31.5 197.5 16.28
31.5 198.5 16.28
31.5 199.5 16.32
31.5 200.5 16.41
31.5 201.5 16.49
31.5 202.5 16.55
31.5 203.5 16.61
31.5 204.5 16.7
31.5 205.5 16.74
31.5 206.5 16.78
31.5 207.5 16.84
31.5 208.5 16.85
31.5 209.5 16.87
30.5 180.5 17.51
30.5 181.5 17.72
30.5 182.5 17.96
30.5 183.5 18.1
30.5 184.5 18.16
30.5 185.5 17.91
30.5 186.5 17.69
30.5 187.5 17.53
30.5 188.5 17.51
30.5 189.5 17.62
30.5 190.5 17.73
30.5 191.5 17.83
30.5 192.5 17.79
30.5 193.5 17.79
30.5 194.5 17.77
30.5 195.5 17.7
30.5 196.5 17.46
30.5 197.5 17.41
30.5 198.5 17.45
30.5 199.5 17.5
30.5 200.5 17.57
30.5 201.5 17.64
30.5 202.5 17.69
30.5 203.5 17.69
30.5 204.5 17.69
30.5 205.5 17.7
30.5 206.5 17.76
30.5 207.5 17.86
30.5 208.5 17.86
30.5 209.5 17.86
29.5 180.5 18.58
29.5 181.5 18.7
29.5 182.5 18.85
29.5 183.5 18.89
29.5 184.5 18.73
29.5 185.5 18.47
29.5 186.5 18.29
29.5 187.5 18.21
29.5 188.5 18.29
29.5 189.5 18.45
29.5 190.5 18.58
29.5 191.5 18.72
29.5 192.5 18.81
29.5 193.5 18.86
29.5 194.5 18.83
29.5 195.5 18.78
29.5 196.5 18.62
29.5 197.5 18.61
29.5 198.5 18.68
29.5 199.5 18.75
29.5 200.5 18.78
29.5 201.5 18.86
29.5 202.5 18.89
29.5 203.5 18.83
29.5 204.5 18.74
29.5 205.5 18.73
29.5 206.5 18.81
29.5 207.5 18.93
29.5 208.5 18.95
29.5 209.5 18.93
28.5 180.5 19.78
28.5 181.5 19.82
28.5 182.5 19.89
28.5 183.5 19.84
28.5 184.5 19.48
28.5 185.5 19.22
28.5 186.5 19.1
28.5 187.5 19.1
28.5 188.5 19.12
28.5 189.5 19.28
28.5 190.5 19.38
28.5 191.5 19.51
28.5 192.5 19.67
28.5 193.5 19.75
28.5 194.5 19.74
28.5 195.5 19.74
28.5 196.5 19.69
28.5 197.5 19.73
28.5 198.5 19.81
28.5 199.5 19.92
28.5 200.5 19.93
28.5 201.5 20.03
28.5 202.5 20.03
28.5 203.5 19.93
28.5 204.5 19.78
28.5 205.5 19.75
28.5 206.5 19.81
28.5 207.5 19.93
28.5 208.5 19.98
28.5 209.5 19.94
27.5 180.5 20.95
27.5 181.5 20.96
27.5 182.5 21
27.5 183.5 20.9
27.5 184.5 20.45
27.5 185.5 20.28
27.5 186.5 20.25
27.5 187.5 20.3
27.5 188.5 20.15
27.5 189.5 20.23
27.5 190.5 20.27
27.5 191.5 20.32
27.5 192.5 20.4
27.5 193.5 20.45
27.5 194.5 20.43
27.5 195.5 20.5
27.5 196.5 20.57
27.5 197.5 20.62
27.5 198.5 20.69
27.5 199.5 20.83
27.5 200.5 20.88
27.5 201.5 20.99
27.5 202.5 20.96
27.5 203.5 20.82
27.5 204.5 20.63
27.5 205.5 20.56
27.5 206.5 20.59
27.5 207.5 20.72
27.5 208.5 20.88
27.5 209.5 20.86
26.5 180.5 21.95
26.5 181.5 21.98
26.5 182.5 22.02
26.5 183.5 21.94
26.5 184.5 21.55
26.5 185.5 21.49
26.5 186.5 21.55
26.5 187.5 21.6
26.5 188.5 21.33
26.5 189.5 21.28
26.5 190.5 21.21
26.5 191.5 21.14
26.5 192.5 21.08
26.5 193.5 21.09
26.5 194.5 21.11
26.5 195.5 21.24
26.5 196.5 21.38
26.5 197.5 21.42
26.5 198.5 21.42
26.5 199.5 21.53
26.5 200.5 21.6
26.5 201.5 21.72
26.5 202.5 21.66
26.5 203.5 21.51
26.5 204.5 21.35
26.5 205.5 21.27
26.5 206.5 21.26
26.5 207.5 21.38
26.5 208.5 21.61
26.5 209.5 21.57
25.5 180.5 22.83
25.5 181.5 22.89
25.5 182.5 22.95
25.5 183.5 22.91
25.5 184.5 22.63
25.5 185.5 22.67
25.5 186.5 22.8
25.5 187.5 22.84
25.5 188.5 22.52
25.5 189.5 22.37
25.5 190.5 22.19
25.5 191.5 22.02
25.5 192.5 21.87
25.5 193.5 21.87
25.5 194.5 21.93
25.5 195.5 22.1
25.5 196.5 22.23
25.5 197.5 22.23
25.5 198.5 22.15
25.5 199.5 22.17
25.5 200.5 22.24
25.5 201.5 22.34
25.5 202.5 22.28
25.5 203.5 22.16
25.5 204.5 22.05
25.5 205.5 21.98
25.5 206.5 21.95
25.5 207.5 22.04
25.5 208.5 22.25
25.5 209.5 22.17
24.5 180.5 23.49
24.5 181.5 23.56
24.5 182.5 23.64
24.5 183.5 23.65
24.5 184.5 23.47
24.5 185.5 23.57
24.5 186.5 23.73
24.5 187.5 23.76
24.5 188.5 23.48
24.5 189.5 23.29
24.5 190.5 23.09
24.5 191.5 22.89
24.5 192.5 22.81
24.5 193.5 22.82
24.5 194.5 22.89
24.5 195.5 23.04
24.5 196.5 23.11
24.5 197.5 23.03
24.5 198.5 22.87
24.5 199.5 22.79
24.5 200.5 22.83
24.5 201.5 22.91
24.5 202.5 22.87
24.5 203.5 22.82
24.5 204.5 22.79
24.5 205.5 22.75
24.5 206.5 22.71
24.5 207.5 22.73
24.5 208.5 22.84
24.5 209.5 22.72
23.5 180.5 23.86
23.5 181.5 23.94
23.5 182.5 24.05
23.5 183.5 24.11
23.5 184.5 24.01
23.5 185.5 24.12
23.5 186.5 24.26
23.5 187.5 24.27
23.5 188.5 24.05
23.5 189.5 23.93
23.5 190.5 23.81
23.5 191.5 23.74
23.5 192.5 23.88
23.5 193.5 23.92
23.5 194.5 23.94
23.5 195.5 23.97
23.5 196.5 23.95
23.5 197.5 23.82
23.5 198.5 23.62
23.5 199.5 23.48
23.5 200.5 23.53
23.5 201.5 23.56
23.5 202.5 23.53
23.5 203.5 23.52
23.5 204.5 23.52
23.5 205.5 23.48
23.5 206.5 23.39
23.5 207.5 23.35
23.5 208.5 23.33
23.5 209.5 23.22
22.5 180.5 24.18
22.5 181.5 24.25
22.5 182.5 24.38
22.5 183.5 24.47
22.5 184.5 24.45
22.5 185.5 24.57
22.5 186.5 24.7
22.5 187.5 24.72
22.5 188.5 24.56
22.5 189.5 24.49
22.5 190.5 24.42
22.5 191.5 24.41
22.5 192.5 24.64
22.5 193.5 24.69
22.5 194.5 24.7
22.5 195.5 24.66
22.5 196.5 24.56
22.5 197.5 24.39
22.5 198.5 24.18
22.5 199.5 24.04
22.5 200.5 24.09
22.5 201.5 24.13
22.5 202.5 24.13
22.5 203.5 24.14
22.5 204.5 24.1
22.5 205.5 24.05
22.5 206.5 23.94
22.5 207.5 23.83
22.5 208.5 23.7
22.5 209.5 23.56
21.5 180.5 24.58
21.5 181.5 24.63
21.5 182.5 24.75
21.5 183.5 24.86
21.5 184.5 24.92
21.5 185.5 25.04
21.5 186.5 25.16
21.5 187.5 25.2
21.5 188.5 25.11
21.5 189.5 25.09
21.5 190.5 25.06
21.5 191.5 25.06
21.5 192.5 25.22
21.5 193.5 25.24
21.5 194.5 25.21
21.5 195.5 25.12
21.5 196.5 24.97
21.5 197.5 24.8
21.5 198.5 24.62
21.5 199.5 24.52
21.5 200.5 24.6
21.5 201.5 24.64
21.5 202.5 24.64
21.5 203.5 24.61
21.5 204.5 24.49
21.5 205.5 24.4
21.5 206.5 24.27
21.5 207.5 24.14
21.5 208.5 23.98
21.5 209.5 23.83
20.5 180.5 25.08
20.5 181.5 25.14
20.5 182.5 25.25
20.5 183.5 25.36
20.5 184.5 25.43
20.5 185.5 25.56
20.5 186.5 25.66
20.5 187.5 25.7
20.5 188.5 25.68
20.5 189.5 25.67
20.5 190.5 25.65
20.5 191.5 25.63
20.5 192.5 25.67
20.5 193.5 25.63
20.5 194.5 25.55
20.5 195.5 25.43
20.5 196.5 25.29
20.5 197.5 25.15
20.5 198.5 25.03
20.5 199.5 24.96
20.5 200.5 25.05
20.5 201.5 25.07
20.5 202.5 25.03
20.5 203.5 24.92
20.5 204.5 24.75
20.5 205.5 24.61
20.5 206.5 24.46
20.5 207.5 24.32
20.5 208.5 24.23
20.5 209.5 24.1
19.5 180.5 25.64
19.5 181.5 25.72
19.5 182.5 25.83
19.5 183.5 25.9
19.5 184.5 25.87
19.5 185.5 25.97
19.5 186.5 26.06
19.5 187.5 26.1
19.5 188.5 26.12
19.5 189.5 26.1
19.5 190.5 26.08
19.5 191.5 26.03
19.5 192.5 25.97
19.5 193.5 25.88
19.5 194.5 25.79
19.5 195.5 25.68
19.5 196.5 25.57
19.5 197.5 25.51
19.5 198.5 25.44
19.5 199.5 25.38
19.5 200.5 25.39
19.5 201.5 25.34
19.5 202.5 25.22
19.5 203.5 25.04
19.5 204.5 24.9
19.5 205.5 24.73
19.5 206.5 24.58
19.5 207.5 24.47
19.5 208.5 24.45
19.5 209.5 24.37
18.5 180.5 26.12
18.5 181.5 26.18
18.5 182.5 26.23
18.5 183.5 26.23
18.5 184.5 26.13
18.5 185.5 26.19
18.5 186.5 26.26
18.5 187.5 26.28
18.5 188.5 26.25
18.5 189.5 26.23
18.5 190.5 26.2
18.5 191.5 26.17
18.5 192.5 26.08
18.5 193.5 26
18.5 194.5 25.9
18.5 195.5 25.79
18.5 196.5 25.71
18.5 197.5 25.66
18.5 198.5 25.6
18.5 199.5 25.51
18.5 200.5 25.49
18.5 201.5 25.39
18.5 202.5 25.25
18.5 203.5 25.06
18.5 204.5 24.97
18.5 205.5 24.83
18.5 206.5 24.71
18.5 207.5 24.65
18.5 208.5 24.67
18.5 209.5 24.61
17.5 180.5 26.41
17.5 181.5 26.42
17.5 182.5 26.41
17.5 183.5 26.35
17.5 184.5 26.21
17.5 185.5 26.23
17.5 186.5 26.27
17.5 187.5 26.27
17.5 188.5 26.22
17.5 189.5 26.2
17.5 190.5 26.17
17.5 191.5 26.16
17.5 192.5 26.09
17.5 193.5 26.02
17.5 194.5 25.93
17.5 195.5 25.83
17.5 196.5 25.75
17.5 197.5 25.69
17.5 198.5 25.61
17.5 199.5 25.51
17.5 200.5 25.46
17.5 201.5 25.34
17.5 202.5 25.2
17.5 203.5 25.04
17.5 204.5 25
17.5 205.5 24.91
17.5 206.5 24.86
17.5 207.5 24.84
17.5 208.5 24.87
17.5 209.5 24.82
16.5 180.5 26.51
16.5 181.5 26.48
16.5 182.5 26.42
16.5 183.5 26.33
16.5 184.5 26.21
16.5 185.5 26.21
16.5 186.5 26.23
16.5 187.5 26.23
16.5 188.5 26.19
16.5 189.5 26.17
16.5 190.5 26.15
16.5 191.5 26.14
16.5 192.5 26.09
16.5 193.5 26.03
16.5 194.5 25.94
16.5 195.5 25.83
16.5 196.5 25.75
16.5 197.5 25.67
16.5 198.5 25.57
16.5 199.5 25.46
16.5 200.5 25.43
16.5 201.5 25.32
16.5 202.5 25.2
16.5 203.5 25.08
16.5 204.5 25.09
16.5 205.5 25.06
16.5 206.5 25.05
16.5 207.5 25.05
16.5 208.5 25.07
16.5 209.5 25.02
15.5 180.5 26.46
15.5 181.5 26.39
15.5 182.5 26.31
15.5 183.5 26.25
15.5 184.5 26.23
15.5 185.5 26.25
15.5 186.5 26.27
15.5 187.5 26.28
15.5 188.5 26.29
15.5 189.5 26.27
15.5 190.5 26.25
15.5 191.5 26.22
15.5 192.5 26.15
15.5 193.5 26.1
15.5 194.5 26.04
15.5 195.5 25.95
15.5 196.5 25.87
15.5 197.5 25.76
15.5 198.5 25.63
15.5 199.5 25.49
15.5 200.5 25.49
15.5 201.5 25.41
15.5 202.5 25.35
15.5 203.5 25.3
15.5 204.5 25.38
15.5 205.5 25.38
15.5 206.5 25.37
15.5 207.5 25.35
15.5 208.5 25.32
15.5 209.5 25.23
14.5 180.5 26.49
14.5 181.5 26.42
14.5 182.5 26.35
14.5 183.5 26.3
14.5 184.5 26.34
14.5 185.5 26.37
14.5 186.5 26.38
14.5 187.5 26.39
14.5 188.5 26.41
14.5 189.5 26.38
14.5 190.5 26.34
14.5 191.5 26.29
14.5 192.5 26.27
14.5 193.5 26.24
14.5 194.5 26.21
14.5 195.5 26.16
14.5 196.5 26.09
14.5 197.5 25.98
14.5 198.5 25.84
14.5 199.5 25.7
14.5 200.5 25.68
14.5 201.5 25.63
14.5 202.5 25.59
14.5 203.5 25.58
14.5 204.5 25.7
14.5 205.5 25.73
14.5 206.5 25.72
14.5 207.5 25.68
14.5 208.5 25.58
14.5 209.5 25.48
13.5 180.5 26.59
13.5 181.5 26.53
13.5 182.5 26.49
13.5 183.5 26.48
13.5 184.5 26.53
13.5 185.5 26.56
13.5 186.5 26.55
13.5 187.5 26.54
13.5 188.5 26.55
13.5 189.5 26.5
13.5 190.5 26.43
13.5 191.5 26.37
13.5 192.5 26.43
13.5 193.5 26.44
13.5 194.5 26.45
13.5 195.5 26.43
13.5 196.5 26.41
13.5 197.5 26.32
13.5 198.5 26.2
13.5 199.5 26.07
13.5 200.5 26
13.5 201.5 25.96
13.5 202.5 25.94
13.5 203.5 25.94
13.5 204.5 26.04
13.5 205.5 26.05
13.5 206.5 26.02
13.5 207.5 25.97
13.5 208.5 25.84
13.5 209.5 25.74
12.5 180.5 26.73
12.5 181.5 26.7
12.5 182.5 26.69
12.5 183.5 26.72
12.5 184.5 26.77
12.5 185.5 26.79
12.5 186.5 26.76
12.5 187.5 26.72
12.5 188.5 26.7
12.5 189.5 26.64
12.5 190.5 26.56
12.5 191.5 26.5
12.5 192.5 26.62
12.5 193.5 26.67
12.5 194.5 26.7
12.5 195.5 26.73
12.5 196.5 26.77
12.5 197.5 26.72
12.5 198.5 26.64
12.5 199.5 26.53
12.5 200.5 26.42
12.5 201.5 26.37
12.5 202.5 26.35
12.5 203.5 26.32
12.5 204.5 26.34
12.5 205.5 26.31
12.5 206.5 26.26
12.5 207.5 26.19
12.5 208.5 26.08
12.5 209.5 26.03
11.5 180.5 26.9
11.5 181.5 26.91
11.5 182.5 26.94
11.5 183.5 26.99
11.5 184.5 27.04
11.5 185.5 27.05
11.5 186.5 27.02
11.5 187.5 26.97
11.5 188.5 26.96
11.5 189.5 26.9
11.5 190.5 26.82
11.5 191.5 26.75
11.5 192.5 26.84
11.5 193.5 26.88
11.5 194.5 26.93
11.5 195.5 27
11.5 196.5 27.08
11.5 197.5 27.07
11.5 198.5 27.03
11.5 199.5 26.96
11.5 200.5 26.83
11.5 201.5 26.81
11.5 202.5 26.79
11.5 203.5 26.73
11.5 204.5 26.62
11.5 205.5 26.54
11.5 206.5 26.44
11.5 207.5 26.34
11.5 208.5 26.31
11.5 209.5 26.31
10.5 180.5 27.15
10.5 181.5 27.17
10.5 182.5 27.22
10.5 183.5 27.29
10.5 184.5 27.37
10.5 185.5 27.38
10.5 186.5 27.34
10.5 187.5 27.31
10.5 188.5 27.3
10.5 189.5 27.26
10.5 190.5 27.19
10.5 191.5 27.12
10.5 192.5 27.1
10.5 193.5 27.11
10.5 194.5 27.13
10.5 195.5 27.17
10.5 196.5 27.25
10.5 197.5 27.26
10.5 198.5 27.26
10.5 199.5 27.23
10.5 200.5 27.15
10.5 201.5 27.15
10.5 202.5 27.14
10.5 203.5 27.08
10.5 204.5 26.94
10.5 205.5 26.84
10.5 206.5 26.73
10.5 207.5 26.6
10.5 208.5 26.55
10.5 209.5 26.57
