39.5 180.5 11.3
39.5 181.5 11.34
39.5 182.5 11.33
39.5 183.5 11.4
39.5 184.5 11.87
39.5 185.5 11.69
39.5 186.5 11.28
39.5 187.5 10.91
39.5 188.5 11
39.5 189.5 10.94
39.5 190.5 10.88
39.5 191.5 10.81
39.5 192.5 10.77
39.5 193.5 10.87
39.5 194.5 11.02
39.5 195.5 11.02
39.5 196.5 10.69
39.5 197.5 10.5
39.5 198.5 10.41
39.5 199.5 10.36
39.5 200.5 10.41
39.5 201.5 10.37
39.5 202.5 10.35
39.5 203.5 10.37
39.5 204.5 10.59
39.5 205.5 10.52
39.5 206.5 10.43
39.5 207.5 10.47
39.5 208.5 10.84
39.5 209.5 11.01
38.5 180.5 12.16
38.5 181.5 12.22
38.5 182.5 12.27
38.5 183.5 12.43
38.5 184.5 12.96
38.5 185.5 12.81
38.5 186.5 12.41
38.5 187.5 12.08
38.5 188.5 12.22
38.5 189.5 12.14
38.5 190.5 12
38.5 191.5 11.82
38.5 192.5 11.67
38.5 193.5 11.72
38.5 194.5 11.87
38.5 195.5 11.84
38.5 196.5 11.44
38.5 197.5 11.22
38.5 198.5 11.13
38.5 199.5 11.1
38.5 200.5 11.16
38.5 201.5 11.12
38.5 202.5 11.08
38.5 203.5 11.08
38.5 204.5 11.29
38.5 205.5 11.27
38.5 206.5 11.23
38.5 207.5 11.27
38.5 208.5 11.51
38.5 209.5 11.65
37.5 180.5 13.02
37.5 181.5 13.02
37.5 182.5 13.09
37.5 183.5 13.26
37.5 184.5 13.76
37.5 185.5 13.64
37.5 186.5 13.28
37.5 187.5 13.01
37.5 188.5 13.2
37.5 189.5 13.06
37.5 190.5 12.81
37.5 191.5 12.49
37.5 192.5 12.23
37.5 193.5 12.23
37.5 194.5 12.37
37.5 195.5 12.36
37.5 196.5 12
37.5 197.5 11.8
37.5 198.5 11.75
37.5 199.5 11.75
37.5 200.5 11.81
37.5 201.5 11.78
37.5 202.5 11.73
37.5 203.5 11.73
37.5 204.5 11.95
37.5 205.5 12
37.5 206.5 12.01
37.5 207.5 12.09
37.5 208.5 12.24
37.5 209.5 12.35
36.5 180.5 13.99
36.5 181.5 13.9
36.5 182.5 13.92
36.5 183.5 14.01
36.5 184.5 14.34
36.5 185.5 14.19
36.5 186.5 13.87
36.5 187.5 13.66
36.5 188.5 13.89
36.5 189.5 13.68
36.5 190.5 13.32
36.5 191.5 12.9
36.5 192.5 12.58
36.5 193.5 12.57
36.5 194.5 12.72
36.5 195.5 12.76
36.5 196.5 12.46
36.5 197.5 12.32
36.5 198.5 12.32
36.5 199.5 12.36
36.5 200.5 12.42
36.5 201.5 12.4
36.5 202.5 12.36
36.5 203.5 12.39
36.5 204.5 12.62
36.5 205.5 12.72
36.5 206.5 12.79
36.5 207.5 12.9
36.5 208.5 13.02
36.5 209.5 13.13
35.5 180.5 15.03
35.5 181.5 14.91
35.5 182.5 14.89
35.5 183.5 14.86
35.5 184.5 14.88
35.5 185.5 14.62
35.5 186.5 14.29
35.5 187.5 14.11
35.5 188.5 14.36
35.5 189.5 14.12
35.5 190.5 13.69
35.5 191.5 13.26
35.5 192.5 13
35.5 193.5 13.02
35.5 194.5 13.2
35.5 195.5 13.27
35.5 196.5 13.01
35.5 197.5 12.9
35.5 198.5 12.92
35.5 199.5 12.97
35.5 200.5 13.08
35.5 201.5 13.07
35.5 202.5 13.06
35.5 203.5 13.11
35.5 204.5 13.42
35.5 205.5 13.55
35.5 206.5 13.63
35.5 207.5 13.75
35.5 208.5 13.97
35.5 209.5 14.09
34.5 180.5 16.05
34.5 181.5 15.95
34.5 182.5 15.88
34.5 183.5 15.73
34.5 184.5 15.42
34.5 185.5 15.05
34.5 186.5 14.72
34.5 187.5 14.56
34.5 188.5 14.76
34.5 189.5 14.52
34.5 190.5 14.12
34.5 191.5 13.77
34.5 192.5 13.67
34.5 193.5 13.76
34.5 194.5 13.97
34.5 195.5 14.07
34.5 196.5 13.8
34.5 197.5 13.71
34.5 198.5 13.72
34.5 199.5 13.77
34.5 200.5 13.89
34.5 201.5 13.89
34.5 202.5 13.9
34.5 203.5 13.99
34.5 204.5 14.38
34.5 205.5 14.52
34.5 206.5 14.59
34.5 207.5 14.72
34.5 208.5 15.01
34.5 209.5 15.12
33.5 180.5 16.94
33.5 181.5 16.9
33.5 182.5 16.83
33.5 183.5 16.63
33.5 184.5 16.1
33.5 185.5 15.71
33.5 186.5 15.42
33.5 187.5 15.26
33.5 188.5 15.34
33.5 189.5 15.11
33.5 190.5 14.77
33.5 191.5 14.52
33.5 192.5 14.57
33.5 193.5 14.71
33.5 194.5 14.92
33.5 195.5 15.04
33.5 196.5 14.81
33.5 197.5 14.73
33.5 198.5 14.71
33.5 199.5 14.72
33.5 200.5 14.77
33.5 201.5 14.75
33.5 202.5 14.75
33.5 203.5 14.86
33.5 204.5 15.3
33.5 205.5 15.44
33.5 206.5 15.5
33.5 207.5 15.63
33.5 208.5 15.97
33.5 209.5 16.05
32.5 180.5 17.63
32.5 181.5 17.65
32.5 182.5 17.64
32.5 183.5 17.49
32.5 184.5 16.95
32.5 185.5 16.64
32.5 186.5 16.41
32.5 187.5 16.25
32.5 188.5 16.17
32.5 189.5 15.95
32.5 190.5 15.68
32.5 191.5 15.5
32.5 192.5 15.59
32.5 193.5 15.71
32.5 194.5 15.9
32.5 195.5 16.04
32.5 196.5 15.92
32.5 197.5 15.86
32.5 198.5 15.81
32.5 199.5 15.74
32.5 200.5 15.67
32.5 201.5 15.62
32.5 202.5 15.6
32.5 203.5 15.71
32.5 204.5 16.14
32.5 205.5 16.27
32.5 206.5 16.33
32.5 207.5 16.46
32.5 208.5 16.81
32.5 209.5 16.86
31.5 180.5 18.29
31.5 181.5 18.34
31.5 182.5 18.4
31.5 183.5 18.35
31.5 184.5 17.99
31.5 185.5 17.77
31.5 186.5 17.6
31.5 187.5 17.44
31.5 188.5 17.33
31.5 189.5 17.16
31.5 190.5 16.97
31.5 191.5 16.78
31.5 192.5 16.74
31.5 193.5 16.7
31.5 194.5 16.77
31.5 195.5 16.88
31.5 196.5 16.94
31.5 197.5 16.88
31.5 198.5 16.77
31.5 199.5 16.66
31.5 200.5 16.63
31.5 201.5 16.57
31.5 202.5 16.54
31.5 203.5 16.64
31.5 204.5 17.07
31.5 205.5 17.17
31.5 206.5 17.21
31.5 207.5 17.33
31.5 208.5 17.54
31.5 209.5 17.58
30.5 180.5 19.04
30.5 181.5 19.05
30.5 182.5 19.09
30.5 183.5 19.05
30.5 184.5 18.76
30.5 185.5 18.64
30.5 186.5 18.55
30.5 187.5 18.45
30.5 188.5 18.39
30.5 189.5 18.27
30.5 190.5 18.13
30.5 191.5 17.96
30.5 192.5 17.82
30.5 193.5 17.69
30.5 194.5 17.68
30.5 195.5 17.76
30.5 196.5 17.88
30.5 197.5 17.82
30.5 198.5 17.69
30.5 199.5 17.6
30.5 200.5 17.71
30.5 201.5 17.68
30.5 202.5 17.63
30.5 203.5 17.7
30.5 204.5 18.07
30.5 205.5 18.15
30.5 206.5 18.19
30.5 207.5 18.31
30.5 208.5 18.46
30.5 209.5 18.48
29.5 180.5 19.99
29.5 181.5 19.93
29.5 182.5 19.91
29.5 183.5 19.8
29.5 184.5 19.46
29.5 185.5 19.35
29.5 186.5 19.3
29.5 187.5 19.24
29.5 188.5 19.27
29.5 189.5 19.21
29.5 190.5 19.15
29.5 191.5 19.04
29.5 192.5 18.93
29.5 193.5 18.78
29.5 194.5 18.72
29.5 195.5 18.73
29.5 196.5 18.82
29.5 197.5 18.75
29.5 198.5 18.6
29.5 199.5 18.56
29.5 200.5 18.84
29.5 201.5 18.86
29.5 202.5 18.82
29.5 203.5 18.85
29.5 204.5 19.11
29.5 205.5 19.15
29.5 206.5 19.17
29.5 207.5 19.26
29.5 208.5 19.37
29.5 209.5 19.39
28.5 180.5 21.03
28.5 181.5 20.93
28.5 182.5 20.85
28.5 183.5 20.66
28.5 184.5 20.19
28.5 185.5 20.04
28.5 186.5 19.98
28.5 187.5 19.93
28.5 188.5 19.99
28.5 189.5 20
28.5 190.5 20.01
28.5 191.5 20
28.5 192.5 20.02
28.5 193.5 19.88
28.5 194.5 19.79
28.5 195.5 19.73
28.5 196.5 19.79
28.5 197.5 19.69
28.5 198.5 19.56
28.5 199.5 19.56
28.5 200.5 19.93
28.5 201.5 19.99
28.5 202.5 19.97
28.5 203.5 19.97
28.5 204.5 20.1
28.5 205.5 20.09
28.5 206.5 20.07
28.5 207.5 20.12
28.5 208.5 20.21
28.5 209.5 20.24
27.5 180.5 22.02
27.5 181.5 21.92
27.5 182.5 21.81
27.5 183.5 21.57
27.5 184.5 21.09
27.5 185.5 20.9
27.5 186.5 20.82
27.5 187.5 20.76
27.5 188.5 20.81
27.5 189.5 20.81
27.5 190.5 20.83
27.5 191.5 20.86
27.5 192.5 21.03
27.5 193.5 20.92
27.5 194.5 20.78
27.5 195.5 20.66
27.5 196.5 20.75
27.5 197.5 20.65
27.5 198.5 20.55
27.5 199.5 20.58
27.5 200.5 20.93
27.5 201.5 20.98
27.5 202.5 20.98
27.5 203.5 20.97
27.5 204.5 21.03
27.5 205.5 20.98
27.5 206.5 20.94
27.5 207.5 20.96
27.5 208.5 21.03
27.5 209.5 21.07
26.5 180.5 22.94
26.5 181.5 22.84
26.5 182.5 22.72
26.5 183.5 22.49
26.5 184.5 22.1
26.5 185.5 21.94
26.5 186.5 21.86
26.5 187.5 21.8
26.5 188.5 21.73
26.5 189.5 21.7
26.5 190.5 21.69
26.5 191.5 21.67
26.5 192.5 21.76
26.5 193.5 21.67
26.5 194.5 21.55
26.5 195.5 21.47
26.5 196.5 21.7
26.5 197.5 21.66
26.5 198.5 21.61
26.5 199.5 21.65
26.5 200.5 21.92
26.5 201.5 21.94
26.5 202.5 21.91
26.5 203.5 21.87
26.5 204.5 21.8
26.5 205.5 21.73
26.5 206.5 21.68
26.5 207.5 21.69
26.5 208.5 21.73
26.5 209.5 21.76
25.5 180.5 23.78
25.5 181.5 23.68
25.5 182.5 23.55
25.5 183.5 23.33
25.5 184.5 23.08
25.5 185.5 22.96
25.5 186.5 22.92
25.5 187.5 22.88
25.5 188.5 22.72
25.5 189.5 22.65
25.5 190.5 22.58
25.5 191.5 22.48
25.5 192.5 22.4
25.5 193.5 22.29
25.5 194.5 22.2
25.5 195.5 22.18
25.5 196.5 22.51
25.5 197.5 22.54
25.5 198.5 22.53
25.5 199.5 22.59
25.5 200.5 22.79
25.5 201.5 22.75
25.5 202.5 22.67
25.5 203.5 22.58
25.5 204.5 22.43
25.5 205.5 22.38
25.5 206.5 22.36
25.5 207.5 22.37
25.5 208.5 22.39
25.5 209.5 22.4
24.5 180.5 24.42
24.5 181.5 24.32
24.5 182.5 24.16
24.5 183.5 23.94
24.5 184.5 23.78
24.5 185.5 23.7
24.5 186.5 23.7
24.5 187.5 23.71
24.5 188.5 23.59
24.5 189.5 23.5
24.5 190.5 23.39
24.5 191.5 23.23
24.5 192.5 23.04
24.5 193.5 22.93
24.5 194.5 22.85
24.5 195.5 22.86
24.5 196.5 23.2
24.5 197.5 23.26
24.5 198.5 23.29
24.5 199.5 23.34
24.5 200.5 23.45
24.5 201.5 23.36
24.5 202.5 23.24
24.5 203.5 23.11
24.5 204.5 22.96
24.5 205.5 22.95
24.5 206.5 22.97
24.5 207.5 22.98
24.5 208.5 22.98
24.5 209.5 22.96
23.5 180.5 24.76
23.5 181.5 24.64
23.5 182.5 24.47
23.5 183.5 24.25
23.5 184.5 24.07
23.5 185.5 24.03
23.5 186.5 24.07
23.5 187.5 24.15
23.5 188.5 24.19
23.5 189.5 24.11
23.5 190.5 24
23.5 191.5 23.85
23.5 192.5 23.68
23.5 193.5 23.59
23.5 194.5 23.54
23.5 195.5 23.55
23.5 196.5 23.8
23.5 197.5 23.87
23.5 198.5 23.89
23.5 199.5 23.89
23.5 200.5 23.88
23.5 201.5 23.77
23.5 202.5 23.64
23.5 203.5 23.56
23.5 204.5 23.5
23.5 205.5 23.51
23.5 206.5 23.5
23.5 207.5 23.46
23.5 208.5 23.41
23.5 209.5 23.37
22.5 180.5 25.06
22.5 181.5 24.91
22.5 182.5 24.7
22.5 183.5 24.46
22.5 184.5 24.29
22.5 185.5 24.25
22.5 186.5 24.3
22.5 187.5 24.41
22.5 188.5 24.55
22.5 189.5 24.56
22.5 190.5 24.53
22.5 191.5 24.46
22.5 192.5 24.37
22.5 193.5 24.33
22.5 194.5 24.3
22.5 195.5 24.29
22.5 196.5 24.36
22.5 197.5 24.4
22.5 198.5 24.42
22.5 199.5 24.41
22.5 200.5 24.34
22.5 201.5 24.21
22.5 202.5 24.08
22.5 203.5 23.99
22.5 204.5 23.95
22.5 205.5 23.94
22.5 206.5 23.91
22.5 207.5 23.83
22.5 208.5 23.71
22.5 209.5 23.63
21.5 180.5 25.35
21.5 181.5 25.19
21.5 182.5 24.97
21.5 183.5 24.75
21.5 184.5 24.64
21.5 185.5 24.62
21.5 186.5 24.66
21.5 187.5 24.76
21.5 188.5 24.93
21.5 189.5 25.01
21.5 190.5 25.04
21.5 191.5 25.04
21.5 192.5 25
21.5 193.5 24.99
21.5 194.5 24.98
21.5 195.5 24.95
21.5 196.5 24.88
21.5 197.5 24.89
21.5 198.5 24.89
21.5 199.5 24.87
21.5 200.5 24.76
21.5 201.5 24.64
21.5 202.5 24.52
21.5 203.5 24.42
21.5 204.5 24.36
21.5 205.5 24.32
21.5 206.5 24.24
21.5 207.5 24.12
21.5 208.5 23.93
21.5 209.5 23.82
20.5 180.5 25.69
20.5 181.5 25.55
20.5 182.5 25.36
20.5 183.5 25.19
20.5 184.5 25.15
20.5 185.5 25.14
20.5 186.5 25.16
20.5 187.5 25.23
20.5 188.5 25.35
20.5 189.5 25.44
20.5 190.5 25.49
20.5 191.5 25.51
20.5 192.5 25.49
20.5 193.5 25.49
20.5 194.5 25.48
20.5 195.5 25.44
20.5 196.5 25.3
20.5 197.5 25.29
20.5 198.5 25.28
20.5 199.5 25.25
20.5 200.5 25.13
20.5 201.5 25.04
20.5 202.5 24.93
20.5 203.5 24.82
20.5 204.5 24.71
20.5 205.5 24.61
20.5 206.5 24.49
20.5 207.5 24.32
20.5 208.5 24.11
20.5 209.5 23.99
19.5 180.5 26.03
19.5 181.5 25.91
19.5 182.5 25.77
19.5 183.5 25.65
19.5 184.5 25.64
19.5 185.5 25.65
19.5 186.5 25.66
19.5 187.5 25.68
19.5 188.5 25.71
19.5 189.5 25.75
19.5 190.5 25.78
19.5 191.5 25.78
19.5 192.5 25.75
19.5 193.5 25.72
19.5 194.5 25.7
19.5 195.5 25.67
19.5 196.5 25.6
19.5 197.5 25.58
19.5 198.5 25.56
19.5 199.5 25.53
19.5 200.5 25.41
19.5 201.5 25.36
19.5 202.5 25.28
19.5 203.5 25.17
19.5 204.5 24.99
19.5 205.5 24.84
19.5 206.5 24.66
19.5 207.5 24.45
19.5 208.5 24.27
19.5 209.5 24.14
18.5 180.5 26.29
18.5 181.5 26.2
18.5 182.5 26.09
18.5 183.5 25.99
18.5 184.5 25.95
18.5 185.5 25.93
18.5 186.5 25.91
18.5 187.5 25.88
18.5 188.5 25.86
18.5 189.5 25.86
18.5 190.5 25.86
18.5 191.5 25.84
18.5 192.5 25.82
18.5 193.5 25.79
18.5 194.5 25.76
18.5 195.5 25.75
18.5 196.5 25.73
18.5 197.5 25.7
18.5 198.5 25.66
18.5 199.5 25.62
18.5 200.5 25.48
18.5 201.5 25.42
18.5 202.5 25.32
18.5 203.5 25.2
18.5 204.5 25.06
18.5 205.5 24.92
18.5 206.5 24.75
18.5 207.5 24.57
18.5 208.5 24.43
18.5 209.5 24.31
17.5 180.5 26.39
17.5 181.5 26.32
17.5 182.5 26.23
17.5 183.5 26.14
17.5 184.5 26.08
17.5 185.5 26.03
17.5 186.5 25.99
17.5 187.5 25.92
17.5 188.5 25.89
17.5 189.5 25.85
17.5 190.5 25.83
17.5 191.5 25.8
17.5 192.5 25.79
17.5 193.5 25.75
17.5 194.5 25.73
17.5 195.5 25.73
17.5 196.5 25.73
17.5 197.5 25.7
17.5 198.5 25.64
17.5 199.5 25.58
17.5 200.5 25.43
17.5 201.5 25.34
17.5 202.5 25.22
17.5 203.5 25.1
17.5 204.5 25.03
17.5 205.5 24.96
17.5 206.5 24.84
17.5 207.5 24.71
17.5 208.5 24.64
17.5 209.5 24.53
16.5 180.5 26.41
16.5 181.5 26.34
16.5 182.5 26.27
16.5 183.5 26.19
16.5 184.5 26.12
16.5 185.5 26.05
16.5 186.5 25.99
16.5 187.5 25.91
16.5 188.5 25.87
16.5 189.5 25.82
16.5 190.5 25.79
16.5 191.5 25.75
16.5 192.5 25.74
16.5 193.5 25.71
16.5 194.5 25.7
16.5 195.5 25.71
16.5 196.5 25.71
16.5 197.5 25.67
16.5 198.5 25.6
16.5 199.5 25.52
16.5 200.5 25.37
16.5 201.5 25.26
16.5 202.5 25.12
16.5 203.5 25.01
16.5 204.5 25.02
16.5 205.5 25.02
16.5 206.5 24.98
16.5 207.5 24.92
16.5 208.5 24.89
16.5 209.5 24.8
15.5 180.5 26.43
15.5 181.5 26.39
15.5 182.5 26.33
15.5 183.5 26.25
15.5 184.5 26.19
15.5 185.5 26.1
15.5 186.5 26.02
15.5 187.5 25.94
15.5 188.5 25.91
15.5 189.5 25.89
15.5 190.5 25.86
15.5 191.5 25.82
15.5 192.5 25.78
15.5 193.5 25.76
15.5 194.5 25.75
15.5 195.5 25.77
15.5 196.5 25.75
15.5 197.5 25.71
15.5 198.5 25.63
15.5 199.5 25.53
15.5 200.5 25.34
15.5 201.5 25.24
15.5 202.5 25.12
15.5 203.5 25.04
15.5 204.5 25.1
15.5 205.5 25.17
15.5 206.5 25.2
15.5 207.5 25.18
15.5 208.5 25.14
15.5 209.5 25.03
14.5 180.5 26.47
14.5 181.5 26.43
14.5 182.5 26.39
14.5 183.5 26.33
14.5 184.5 26.28
14.5 185.5 26.18
14.5 186.5 26.07
14.5 187.5 25.97
14.5 188.5 25.95
14.5 189.5 25.94
14.5 190.5 25.94
14.5 191.5 25.92
14.5 192.5 25.88
14.5 193.5 25.86
14.5 194.5 25.86
14.5 195.5 25.89
14.5 196.5 25.82
14.5 197.5 25.78
14.5 198.5 25.72
14.5 199.5 25.6
14.5 200.5 25.39
14.5 201.5 25.3
14.5 202.5 25.22
14.5 203.5 25.18
14.5 204.5 25.28
14.5 205.5 25.38
14.5 206.5 25.47
14.5 207.5 25.48
14.5 208.5 25.44
14.5 209.5 25.32
13.5 180.5 26.51
13.5 181.5 26.47
13.5 182.5 26.43
13.5 183.5 26.39
13.5 184.5 26.33
13.5 185.5 26.22
13.5 186.5 26.11
13.5 187.5 26
13.5 188.5 26
13.5 189.5 26.01
13.5 190.5 26.02
13.5 191.5 26.02
13.5 192.5 25.98
13.5 193.5 25.96
13.5 194.5 25.97
13.5 195.5 26
13.5 196.5 25.89
13.5 197.5 25.86
13.5 198.5 25.81
13.5 199.5 25.7
13.5 200.5 25.48
13.5 201.5 25.41
13.5 202.5 25.38
13.5 203.5 25.4
13.5 204.5 25.54
13.5 205.5 25.66
13.5 206.5 25.77
13.5 207.5 25.79
13.5 208.5 25.73
13.5 209.5 25.6
12.5 180.5 26.58
12.5 181.5 26.53
12.5 182.5 26.48
12.5 183.5 26.44
12.5 184.5 26.36
12.5 185.5 26.26
12.5 186.5 26.15
12.5 187.5 26.06
12.5 188.5 26.11
12.5 189.5 26.13
12.5 190.5 26.15
12.5 191.5 26.15
12.5 192.5 26.12
12.5 193.5 26.1
12.5 194.5 26.12
12.5 195.5 26.15
12.5 196.5 26.02
12.5 197.5 25.99
12.5 198.5 25.94
12.5 199.5 25.82
12.5 200.5 25.63
12.5 201.5 25.6
12.5 202.5 25.62
12.5 203.5 25.7
12.5 204.5 25.89
12.5 205.5 26.02
12.5 206.5 26.13
12.5 207.5 26.14
12.5 208.5 26.04
12.5 209.5 25.89
11.5 180.5 26.68
11.5 181.5 26.62
11.5 182.5 26.55
11.5 183.5 26.49
11.5 184.5 26.41
11.5 185.5 26.34
11.5 186.5 26.27
11.5 187.5 26.23
11.5 188.5 26.33
11.5 189.5 26.36
11.5 190.5 26.36
11.5 191.5 26.37
11.5 192.5 26.34
11.5 193.5 26.34
11.5 194.5 26.37
11.5 195.5 26.41
11.5 196.5 26.3
11.5 197.5 26.26
11.5 198.5 26.2
11.5 199.5 26.08
11.5 200.5 25.9
11.5 201.5 25.91
11.5 202.5 25.98
11.5 203.5 26.12
11.5 204.5 26.35
11.5 205.5 26.5
11.5 206.5 26.59
11.5 207.5 26.58
11.5 208.5 26.44
11.5 209.5 26.28
10.5 180.5 26.91
10.5 181.5 26.85
10.5 182.5 26.76
10.5 183.5 26.68
10.5 184.5 26.6
10.5 185.5 26.56
10.5 186.5 26.53
10.5 187.5 26.54
10.5 188.5 26.68
10.5 189.5 26.71
10.5 190.5 26.7
10.5 191.5 26.69
10.5 192.5 26.68
10.5 193.5 26.68
10.5 194.5 26.74
10.5 195.5 26.79
10.5 196.5 26.74
10.5 197.5 26.71
10.5 198.5 26.65
10.5 199.5 26.52
10.5 200.5 26.34
10.5 201.5 26.35
10.5 202.5 26.42
10.5 203.5 26.56
10.5 204.5 26.78
10.5 205.5 26.93
10.5 206.5 27.01
10.5 207.5 27
10.5 208.5 26.91
10.5 209.5 26.77
