39.5 180.5 11.92
39.5 181.5 11.98
39.5 182.5 11.97
39.5 183.5 12.02
39.5 184.5 12.35
39.5 185.5 12.24
39.5 186.5 11.94
39.5 187.5 11.67
39.5 188.5 11.86
39.5 189.5 11.88
39.5 190.5 11.94
39.5 191.5 11.92
39.5 192.5 11.62
39.5 193.5 11.64
39.5 194.5 11.74
39.5 195.5 11.69
39.5 196.5 11.24
39.5 197.5 11.04
39.5 198.5 10.98
39.5 199.5 10.92
39.5 200.5 10.88
39.5 201.5 10.82
39.5 202.5 10.8
39.5 203.5 10.83
39.5 204.5 10.94
39.5 205.5 10.94
39.5 206.5 10.96
39.5 207.5 11.08
39.5 208.5 11.54
39.5 209.5 11.79
38.5 180.5 12.63
38.5 181.5 12.73
38.5 182.5 12.78
38.5 183.5 12.88
38.5 184.5 13.34
38.5 185.5 13.29
38.5 186.5 13.02
38.5 187.5 12.77
38.5 188.5 13.17
38.5 189.5 13.14
38.5 190.5 13.15
38.5 191.5 13.04
38.5 192.5 12.58
38.5 193.5 12.53
38.5 194.5 12.61
38.5 195.5 12.52
38.5 196.5 11.91
38.5 197.5 11.65
38.5 198.5 11.54
38.5 199.5 11.48
38.5 200.5 11.5
38.5 201.5 11.44
38.5 202.5 11.42
38.5 203.5 11.46
38.5 204.5 11.62
38.5 205.5 11.65
38.5 206.5 11.69
38.5 207.5 11.82
38.5 208.5 12.18
38.5 209.5 12.41
37.5 180.5 13.51
37.5 181.5 13.58
37.5 182.5 13.61
37.5 183.5 13.69
37.5 184.5 14.18
37.5 185.5 14.15
37.5 186.5 13.92
37.5 187.5 13.69
37.5 188.5 14.23
37.5 189.5 14.11
37.5 190.5 14.03
37.5 191.5 13.82
37.5 192.5 13.2
37.5 193.5 13.1
37.5 194.5 13.16
37.5 195.5 13.08
37.5 196.5 12.44
37.5 197.5 12.19
37.5 198.5 12.08
37.5 199.5 12.04
37.5 200.5 12.1
37.5 201.5 12.08
37.5 202.5 12.06
37.5 203.5 12.13
37.5 204.5 12.36
37.5 205.5 12.43
37.5 206.5 12.5
37.5 207.5 12.64
37.5 208.5 12.94
37.5 209.5 13.16
36.5 180.5 14.71
36.5 181.5 14.67
36.5 182.5 14.61
36.5 183.5 14.56
36.5 184.5 14.89
36.5 185.5 14.82
36.5 186.5 14.63
36.5 187.5 14.45
36.5 188.5 15.06
36.5 189.5 14.85
36.5 190.5 14.63
36.5 191.5 14.32
36.5 192.5 13.64
36.5 193.5 13.52
36.5 194.5 13.59
36.5 195.5 13.57
36.5 196.5 13.01
36.5 197.5 12.8
36.5 198.5 12.7
36.5 199.5 12.67
36.5 200.5 12.76
36.5 201.5 12.78
36.5 202.5 12.8
36.5 203.5 12.91
36.5 204.5 13.2
36.5 205.5 13.3
36.5 206.5 13.38
36.5 207.5 13.51
36.5 208.5 13.78
36.5 209.5 13.99
35.5 180.5 16.13
35.5 181.5 15.97
35.5 182.5 15.82
35.5 183.5 15.63
35.5 184.5 15.57
35.5 185.5 15.38
35.5 186.5 15.18
35.5 187.5 15.03
35.5 188.5 15.53
35.5 189.5 15.26
35.5 190.5 14.93
35.5 191.5 14.56
35.5 192.5 14.14
35.5 193.5 14.05
35.5 194.5 14.14
35.5 195.5 14.19
35.5 196.5 13.7
35.5 197.5 13.52
35.5 198.5 13.41
35.5 199.5 13.4
35.5 200.5 13.51
35.5 201.5 13.59
35.5 202.5 13.66
35.5 203.5 13.8
35.5 204.5 14.1
35.5 205.5 14.21
35.5 206.5 14.28
35.5 207.5 14.38
35.5 208.5 14.65
35.5 209.5 14.82
34.5 180.5 17.53
34.5 181.5 17.32
34.5 182.5 17.1
34.5 183.5 16.79
34.5 184.5 16.38
34.5 185.5 16.09
34.5 186.5 15.86
34.5 187.5 15.75
34.5 188.5 16.21
34.5 189.5 15.95
34.5 190.5 15.59
34.5 191.5 15.25
34.5 192.5 14.98
34.5 193.5 14.94
34.5 194.5 15.05
34.5 195.5 15.11
34.5 196.5 14.65
34.5 197.5 14.5
34.5 198.5 14.41
34.5 199.5 14.41
34.5 200.5 14.54
34.5 201.5 14.63
34.5 202.5 14.71
34.5 203.5 14.84
34.5 204.5 15.19
34.5 205.5 15.28
34.5 206.5 15.32
34.5 207.5 15.4
34.5 208.5 15.68
34.5 209.5 15.8
33.5 180.5 18.66
33.5 181.5 18.46
33.5 182.5 18.25
33.5 183.5 17.91
33.5 184.5 17.39
33.5 185.5 17.05
33.5 186.5 16.83
33.5 187.5 16.75
33.5 188.5 17.05
33.5 189.5 16.81
33.5 190.5 16.46
33.5 191.5 16.17
33.5 192.5 16.03
33.5 193.5 16.04
33.5 194.5 16.12
33.5 195.5 16.16
33.5 196.5 15.77
33.5 197.5 15.64
33.5 198.5 15.56
33.5 199.5 15.54
33.5 200.5 15.63
33.5 201.5 15.69
33.5 202.5 15.73
33.5 203.5 15.83
33.5 204.5 16.18
33.5 205.5 16.25
33.5 206.5 16.29
33.5 207.5 16.37
33.5 208.5 16.65
33.5 209.5 16.72
32.5 180.5 19.46
32.5 181.5 19.33
32.5 182.5 19.2
32.5 183.5 18.95
32.5 184.5 18.55
32.5 185.5 18.28
32.5 186.5 18.1
32.5 187.5 18.02
32.5 188.5 18.05
32.5 189.5 17.81
32.5 190.5 17.5
32.5 191.5 17.24
32.5 192.5 17.11
32.5 193.5 17.12
32.5 194.5 17.16
32.5 195.5 17.19
32.5 196.5 16.95
32.5 197.5 16.84
32.5 198.5 16.76
32.5 199.5 16.68
32.5 200.5 16.7
32.5 201.5 16.7
32.5 202.5 16.69
32.5 203.5 16.75
32.5 204.5 17.08
32.5 205.5 17.13
32.5 206.5 17.18
32.5 207.5 17.28
32.5 208.5 17.54
32.5 209.5 17.57
31.5 180.5 19.85
31.5 181.5 19.85
31.5 182.5 19.89
31.5 183.5 19.85
31.5 184.5 19.71
31.5 185.5 19.55
31.5 186.5 19.43
31.5 187.5 19.34
31.5 188.5 19.09
31.5 189.5 18.9
31.5 190.5 18.66
31.5 191.5 18.44
31.5 192.5 18.16
31.5 193.5 18.1
31.5 194.5 18.07
31.5 195.5 18.09
31.5 196.5 18.08
31.5 197.5 18.02
31.5 198.5 17.91
31.5 199.5 17.78
31.5 200.5 17.77
31.5 201.5 17.71
31.5 202.5 17.67
31.5 203.5 17.72
31.5 204.5 18.01
31.5 205.5 18.05
31.5 206.5 18.11
31.5 207.5 18.24
31.5 208.5 18.48
31.5 209.5 18.46
30.5 180.5 20.5
30.5 181.5 20.54
30.5 182.5 20.63
30.5 183.5 20.66
30.5 184.5 20.6
30.5 185.5 20.53
30.5 186.5 20.48
30.5 187.5 20.41
30.5 188.5 20.1
30.5 189.5 19.93
30.5 190.5 19.74
30.5 191.5 19.54
30.5 192.5 19.17
30.5 193.5 19.06
30.5 194.5 19
30.5 195.5 19.01
30.5 196.5 19.14
30.5 197.5 19.08
30.5 198.5 18.93
30.5 199.5 18.79
30.5 200.5 18.85
30.5 201.5 18.78
30.5 202.5 18.73
30.5 203.5 18.75
30.5 204.5 19.01
30.5 205.5 19.02
30.5 206.5 19.06
30.5 207.5 19.19
30.5 208.5 19.46
30.5 209.5 19.45
29.5 180.5 21.35
29.5 181.5 21.39
29.5 182.5 21.49
29.5 183.5 21.52
29.5 184.5 21.38
29.5 185.5 21.32
29.5 186.5 21.28
29.5 187.5 21.21
29.5 188.5 20.92
29.5 189.5 20.77
29.5 190.5 20.63
29.5 191.5 20.48
29.5 192.5 20.15
29.5 193.5 20.05
29.5 194.5 19.98
29.5 195.5 20
29.5 196.5 20.15
29.5 197.5 20.05
29.5 198.5 19.88
29.5 199.5 19.77
29.5 200.5 19.93
29.5 201.5 19.9
29.5 202.5 19.86
29.5 203.5 19.86
29.5 204.5 20.01
29.5 205.5 19.99
29.5 206.5 19.99
29.5 207.5 20.07
29.5 208.5 20.31
29.5 209.5 20.31
28.5 180.5 22.26
28.5 181.5 22.31
28.5 182.5 22.38
28.5 183.5 22.37
28.5 184.5 22.09
28.5 185.5 21.98
28.5 186.5 21.91
28.5 187.5 21.81
28.5 188.5 21.53
28.5 189.5 21.42
28.5 190.5 21.34
28.5 191.5 21.26
28.5 192.5 21.06
28.5 193.5 21
28.5 194.5 20.95
28.5 195.5 20.96
28.5 196.5 21.05
28.5 197.5 20.93
28.5 198.5 20.75
28.5 199.5 20.68
28.5 200.5 20.89
28.5 201.5 20.92
28.5 202.5 20.91
28.5 203.5 20.91
28.5 204.5 20.94
28.5 205.5 20.86
28.5 206.5 20.8
28.5 207.5 20.82
28.5 208.5 20.99
28.5 209.5 20.99
27.5 180.5 23.01
27.5 181.5 23.09
27.5 182.5 23.17
27.5 183.5 23.16
27.5 184.5 22.88
27.5 185.5 22.72
27.5 186.5 22.6
27.5 187.5 22.44
27.5 188.5 22.14
27.5 189.5 22.05
27.5 190.5 22.01
27.5 191.5 21.97
27.5 192.5 21.94
27.5 193.5 21.9
27.5 194.5 21.86
27.5 195.5 21.83
27.5 196.5 21.85
27.5 197.5 21.7
27.5 198.5 21.52
27.5 199.5 21.46
27.5 200.5 21.65
27.5 201.5 21.71
27.5 202.5 21.73
27.5 203.5 21.76
27.5 204.5 21.74
27.5 205.5 21.63
27.5 206.5 21.52
27.5 207.5 21.5
27.5 208.5 21.57
27.5 209.5 21.58
26.5 180.5 23.86
26.5 181.5 23.93
26.5 182.5 23.96
26.5 183.5 23.9
26.5 184.5 23.65
26.5 185.5 23.48
26.5 186.5 23.36
26.5 187.5 23.22
26.5 188.5 22.9
26.5 189.5 22.8
26.5 190.5 22.73
26.5 191.5 22.66
26.5 192.5 22.57
26.5 193.5 22.52
26.5 194.5 22.49
26.5 195.5 22.47
26.5 196.5 22.53
26.5 197.5 22.41
26.5 198.5 22.28
26.5 199.5 22.25
26.5 200.5 22.38
26.5 201.5 22.42
26.5 202.5 22.43
26.5 203.5 22.44
26.5 204.5 22.38
26.5 205.5 22.24
26.5 206.5 22.11
26.5 207.5 22.06
26.5 208.5 22.14
26.5 209.5 22.14
25.5 180.5 24.58
25.5 181.5 24.62
25.5 182.5 24.6
25.5 183.5 24.49
25.5 184.5 24.29
25.5 185.5 24.14
25.5 186.5 24.05
25.5 187.5 23.95
25.5 188.5 23.67
25.5 189.5 23.56
25.5 190.5 23.47
25.5 191.5 23.32
25.5 192.5 23.15
25.5 193.5 23.06
25.5 194.5 23
25.5 195.5 22.99
25.5 196.5 23.11
25.5 197.5 23.05
25.5 198.5 22.97
25.5 199.5 22.96
25.5 200.5 23.04
25.5 201.5 23.03
25.5 202.5 22.99
25.5 203.5 22.95
25.5 204.5 22.86
25.5 205.5 22.75
25.5 206.5 22.64
25.5 207.5 22.61
25.5 208.5 22.7
25.5 209.5 22.68
24.5 180.5 25.06
24.5 181.5 25.07
24.5 182.5 25
24.5 183.5 24.86
24.5 184.5 24.68
24.5 185.5 24.56
24.5 186.5 24.51
24.5 187.5 24.47
24.5 188.5 24.29
24.5 189.5 24.18
24.5 190.5 24.07
24.5 191.5 23.9
24.5 192.5 23.7
24.5 193.5 23.58
24.5 194.5 23.51
24.5 195.5 23.48
24.5 196.5 23.61
24.5 197.5 23.59
24.5 198.5 23.55
24.5 199.5 23.55
24.5 200.5 23.6
24.5 201.5 23.54
24.5 202.5 23.45
24.5 203.5 23.37
24.5 204.5 23.28
24.5 205.5 23.21
24.5 206.5 23.15
24.5 207.5 23.14
24.5 208.5 23.19
24.5 209.5 23.15
23.5 180.5 25.32
23.5 181.5 25.27
23.5 182.5 25.14
23.5 183.5 24.95
23.5 184.5 24.75
23.5 185.5 24.67
23.5 186.5 24.69
23.5 187.5 24.72
23.5 188.5 24.67
23.5 189.5 24.6
23.5 190.5 24.53
23.5 191.5 24.42
23.5 192.5 24.26
23.5 193.5 24.15
23.5 194.5 24.07
23.5 195.5 24.02
23.5 196.5 24.09
23.5 197.5 24.09
23.5 198.5 24.06
23.5 199.5 24.05
23.5 200.5 24.07
23.5 201.5 23.97
23.5 202.5 23.85
23.5 203.5 23.76
23.5 204.5 23.72
23.5 205.5 23.69
23.5 206.5 23.64
23.5 207.5 23.61
23.5 208.5 23.57
23.5 209.5 23.47
22.5 180.5 25.51
22.5 181.5 25.42
22.5 182.5 25.25
22.5 183.5 25.03
22.5 184.5 24.81
22.5 185.5 24.75
22.5 186.5 24.8
22.5 187.5 24.87
22.5 188.5 24.94
22.5 189.5 24.94
22.5 190.5 24.92
22.5 191.5 24.88
22.5 192.5 24.79
22.5 193.5 24.72
22.5 194.5 24.65
22.5 195.5 24.6
22.5 196.5 24.59
22.5 197.5 24.59
22.5 198.5 24.56
22.5 199.5 24.54
22.5 200.5 24.54
22.5 201.5 24.42
22.5 202.5 24.26
22.5 203.5 24.14
22.5 204.5 24.07
22.5 205.5 24.03
22.5 206.5 23.98
22.5 207.5 23.93
22.5 208.5 23.81
22.5 209.5 23.69
21.5 180.5 25.73
21.5 181.5 25.61
21.5 182.5 25.41
21.5 183.5 25.18
21.5 184.5 25.01
21.5 185.5 24.99
21.5 186.5 25.04
21.5 187.5 25.14
21.5 188.5 25.29
21.5 189.5 25.33
21.5 190.5 25.35
21.5 191.5 25.36
21.5 192.5 25.3
21.5 193.5 25.26
21.5 194.5 25.21
21.5 195.5 25.16
21.5 196.5 25.07
21.5 197.5 25.05
21.5 198.5 25.01
21.5 199.5 24.99
21.5 200.5 24.97
21.5 201.5 24.84
21.5 202.5 24.67
21.5 203.5 24.53
21.5 204.5 24.41
21.5 205.5 24.33
21.5 206.5 24.25
21.5 207.5 24.15
21.5 208.5 23.97
21.5 209.5 23.84
20.5 180.5 26.04
20.5 181.5 25.92
20.5 182.5 25.72
20.5 183.5 25.52
20.5 184.5 25.41
20.5 185.5 25.42
20.5 186.5 25.47
20.5 187.5 25.57
20.5 188.5 25.72
20.5 189.5 25.77
20.5 190.5 25.79
20.5 191.5 25.8
20.5 192.5 25.74
20.5 193.5 25.71
20.5 194.5 25.66
20.5 195.5 25.59
20.5 196.5 25.44
20.5 197.5 25.4
20.5 198.5 25.34
20.5 199.5 25.32
20.5 200.5 25.29
20.5 201.5 25.18
20.5 202.5 25.01
20.5 203.5 24.86
20.5 204.5 24.7
20.5 205.5 24.57
20.5 206.5 24.43
20.5 207.5 24.29
20.5 208.5 24.08
20.5 209.5 23.95
19.5 180.5 26.38
19.5 181.5 26.29
19.5 182.5 26.13
19.5 183.5 25.98
19.5 184.5 25.93
19.5 185.5 25.95
19.5 186.5 26
19.5 187.5 26.07
19.5 188.5 26.08
19.5 189.5 26.09
19.5 190.5 26.09
19.5 191.5 26.07
19.5 192.5 25.99
19.5 193.5 25.93
19.5 194.5 25.86
19.5 195.5 25.78
19.5 196.5 25.67
19.5 197.5 25.61
19.5 198.5 25.54
19.5 199.5 25.52
19.5 200.5 25.49
19.5 201.5 25.4
19.5 202.5 25.25
19.5 203.5 25.09
19.5 204.5 24.89
19.5 205.5 24.71
19.5 206.5 24.53
19.5 207.5 24.34
19.5 208.5 24.17
19.5 209.5 24.03
18.5 180.5 26.58
18.5 181.5 26.53
18.5 182.5 26.44
18.5 183.5 26.34
18.5 184.5 26.32
18.5 185.5 26.31
18.5 186.5 26.32
18.5 187.5 26.33
18.5 188.5 26.24
18.5 189.5 26.22
18.5 190.5 26.19
18.5 191.5 26.16
18.5 192.5 26.09
18.5 193.5 26.02
18.5 194.5 25.93
18.5 195.5 25.84
18.5 196.5 25.77
18.5 197.5 25.7
18.5 198.5 25.62
18.5 199.5 25.58
18.5 200.5 25.54
18.5 201.5 25.43
18.5 202.5 25.28
18.5 203.5 25.11
18.5 204.5 24.94
18.5 205.5 24.77
18.5 206.5 24.6
18.5 207.5 24.42
18.5 208.5 24.28
18.5 209.5 24.16
17.5 180.5 26.63
17.5 181.5 26.62
17.5 182.5 26.58
17.5 183.5 26.54
17.5 184.5 26.52
17.5 185.5 26.5
17.5 186.5 26.47
17.5 187.5 26.42
17.5 188.5 26.28
17.5 189.5 26.22
17.5 190.5 26.18
17.5 191.5 26.14
17.5 192.5 26.09
17.5 193.5 26.01
17.5 194.5 25.92
17.5 195.5 25.83
17.5 196.5 25.79
17.5 197.5 25.71
17.5 198.5 25.63
17.5 199.5 25.57
17.5 200.5 25.51
17.5 201.5 25.37
17.5 202.5 25.2
17.5 203.5 25.02
17.5 204.5 24.92
17.5 205.5 24.8
17.5 206.5 24.68
17.5 207.5 24.56
17.5 208.5 24.46
17.5 209.5 24.37
16.5 180.5 26.65
16.5 181.5 26.64
16.5 182.5 26.64
16.5 183.5 26.63
16.5 184.5 26.6
16.5 185.5 26.55
16.5 186.5 26.5
16.5 187.5 26.41
16.5 188.5 26.27
16.5 189.5 26.21
16.5 190.5 26.16
16.5 191.5 26.11
16.5 192.5 26.07
16.5 193.5 26
16.5 194.5 25.92
16.5 195.5 25.84
16.5 196.5 25.8
16.5 197.5 25.73
16.5 198.5 25.65
16.5 199.5 25.57
16.5 200.5 25.49
16.5 201.5 25.33
16.5 202.5 25.14
16.5 203.5 24.96
16.5 204.5 24.91
16.5 205.5 24.85
16.5 206.5 24.82
16.5 207.5 24.8
16.5 208.5 24.74
16.5 209.5 24.68
15.5 180.5 26.68
15.5 181.5 26.69
15.5 182.5 26.69
15.5 183.5 26.69
15.5 184.5 26.64
15.5 185.5 26.59
15.5 186.5 26.52
15.5 187.5 26.43
15.5 188.5 26.33
15.5 189.5 26.26
15.5 190.5 26.23
15.5 191.5 26.2
15.5 192.5 26.15
15.5 193.5 26.09
15.5 194.5 26.03
15.5 195.5 25.95
15.5 196.5 25.88
15.5 197.5 25.81
15.5 198.5 25.73
15.5 199.5 25.65
15.5 200.5 25.57
15.5 201.5 25.39
15.5 202.5 25.19
15.5 203.5 25.01
15.5 204.5 24.97
15.5 205.5 24.98
15.5 206.5 25.06
15.5 207.5 25.14
15.5 208.5 25.06
15.5 209.5 24.97
14.5 180.5 26.76
14.5 181.5 26.74
14.5 182.5 26.74
14.5 183.5 26.73
14.5 184.5 26.69
14.5 185.5 26.64
14.5 186.5 26.59
14.5 187.5 26.5
14.5 188.5 26.4
14.5 189.5 26.33
14.5 190.5 26.29
14.5 191.5 26.27
14.5 192.5 26.23
14.5 193.5 26.19
14.5 194.5 26.14
14.5 195.5 26.08
14.5 196.5 26.01
14.5 197.5 25.96
14.5 198.5 25.9
14.5 199.5 25.83
14.5 200.5 25.73
14.5 201.5 25.54
14.5 202.5 25.34
14.5 203.5 25.16
14.5 204.5 25.12
14.5 205.5 25.17
14.5 206.5 25.3
14.5 207.5 25.43
14.5 208.5 25.35
14.5 209.5 25.26
13.5 180.5 26.85
13.5 181.5 26.8
13.5 182.5 26.78
13.5 183.5 26.75
13.5 184.5 26.74
13.5 185.5 26.7
13.5 186.5 26.66
13.5 187.5 26.59
13.5 188.5 26.5
13.5 189.5 26.42
13.5 190.5 26.37
13.5 191.5 26.35
13.5 192.5 26.3
13.5 193.5 26.28
13.5 194.5 26.25
13.5 195.5 26.21
13.5 196.5 26.15
13.5 197.5 26.13
13.5 198.5 26.09
13.5 199.5 26.03
13.5 200.5 25.92
13.5 201.5 25.73
13.5 202.5 25.54
13.5 203.5 25.36
13.5 204.5 25.33
13.5 205.5 25.4
13.5 206.5 25.54
13.5 207.5 25.69
13.5 208.5 25.62
13.5 209.5 25.52
12.5 180.5 26.96
12.5 181.5 26.9
12.5 182.5 26.84
12.5 183.5 26.8
12.5 184.5 26.8
12.5 185.5 26.78
12.5 186.5 26.76
12.5 187.5 26.72
12.5 188.5 26.63
12.5 189.5 26.56
12.5 190.5 26.49
12.5 191.5 26.46
12.5 192.5 26.41
12.5 193.5 26.39
12.5 194.5 26.37
12.5 195.5 26.36
12.5 196.5 26.35
12.5 197.5 26.34
12.5 198.5 26.31
12.5 199.5 26.27
12.5 200.5 26.15
12.5 201.5 25.97
12.5 202.5 25.78
12.5 203.5 25.61
12.5 204.5 25.59
12.5 205.5 25.67
12.5 206.5 25.8
12.5 207.5 25.94
12.5 208.5 25.92
12.5 209.5 25.8
11.5 180.5 27.1
11.5 181.5 27.05
11.5 182.5 26.99
11.5 183.5 26.93
11.5 184.5 26.89
11.5 185.5 26.87
11.5 186.5 26.86
11.5 187.5 26.86
11.5 188.5 26.81
11.5 189.5 26.75
11.5 190.5 26.68
11.5 191.5 26.64
11.5 192.5 26.61
11.5 193.5 26.6
11.5 194.5 26.61
11.5 195.5 26.64
11.5 196.5 26.68
11.5 197.5 26.67
11.5 198.5 26.64
11.5 199.5 26.6
11.5 200.5 26.45
11.5 201.5 26.3
11.5 202.5 26.13
11.5 203.5 25.97
11.5 204.5 25.99
11.5 205.5 26.08
11.5 206.5 26.2
11.5 207.5 26.32
11.5 208.5 26.32
11.5 209.5 26.2
10.5 180.5 27.32
10.5 181.5 27.27
10.5 182.5 27.21
10.5 183.5 27.15
10.5 184.5 27.07
10.5 185.5 27.04
10.5 186.5 27.05
10.5 187.5 27.06
10.5 188.5 27.08
10.5 189.5 27.05
10.5 190.5 27
10.5 191.5 26.99
10.5 192.5 27
10.5 193.5 27
10.5 194.5 27.02
10.5 195.5 27.05
10.5 196.5 27.1
10.5 197.5 27.1
10.5 198.5 27.07
10.5 199.5 27.03
10.5 200.5 26.87
10.5 201.5 26.75
10.5 202.5 26.6
10.5 203.5 26.45
10.5 204.5 26.51
10.5 205.5 26.58
10.5 206.5 26.67
10.5 207.5 26.78
10.5 208.5 26.84
10.5 209.5 26.76
