39.5 180.5 13.05
39.5 181.5 13.15
39.5 182.5 13.21
39.5 183.5 13.23
39.5 184.5 13.18
39.5 185.5 13.1
39.5 186.5 12.99
39.5 187.5 12.81
39.5 188.5 12.42
39.5 189.5 12.25
39.5 190.5 12.13
39.5 191.5 11.98
39.5 192.5 11.75
39.5 193.5 11.59
39.5 194.5 11.43
39.5 195.5 11.29
39.5 196.5 11.13
39.5 197.5 11.09
39.5 198.5 11.09
39.5 199.5 11.11
39.5 200.5 11.12
39.5 201.5 11.19
39.5 202.5 11.27
39.5 203.5 11.35
39.5 204.5 11.46
39.5 205.5 11.29
39.5 206.5 11.08
39.5 207.5 10.98
39.5 208.5 11.12
39.5 209.5 11.17
38.5 180.5 14.11
38.5 181.5 14.18
38.5 182.5 14.22
38.5 183.5 14.17
38.5 184.5 14.05
38.5 185.5 13.95
38.5 186.5 13.84
38.5 187.5 13.63
38.5 188.5 13.12
38.5 189.5 12.95
38.5 190.5 12.87
38.5 191.5 12.78
38.5 192.5 12.63
38.5 193.5 12.49
38.5 194.5 12.34
38.5 195.5 12.21
38.5 196.5 12.18
38.5 197.5 12.14
38.5 198.5 12.13
38.5 199.5 12.16
38.5 200.5 12.17
38.5 201.5 12.23
38.5 202.5 12.3
38.5 203.5 12.37
38.5 204.5 12.44
38.5 205.5 12.27
38.5 206.5 12.04
38.5 207.5 11.93
38.5 208.5 12.02
38.5 209.5 12.02
37.5 180.5 14.82
37.5 181.5 14.77
37.5 182.5 14.75
37.5 183.5 14.66
37.5 184.5 14.48
37.5 185.5 14.36
37.5 186.5 14.28
37.5 187.5 14.11
37.5 188.5 13.63
37.5 189.5 13.5
37.5 190.5 13.49
37.5 191.5 13.45
37.5 192.5 13.39
37.5 193.5 13.27
37.5 194.5 13.15
37.5 195.5 13.05
37.5 196.5 13.15
37.5 197.5 13.14
37.5 198.5 13.14
37.5 199.5 13.18
37.5 200.5 13.19
37.5 201.5 13.25
37.5 202.5 13.29
37.5 203.5 13.33
37.5 204.5 13.36
37.5 205.5 13.21
37.5 206.5 13.02
37.5 207.5 12.93
37.5 208.5 13
37.5 209.5 12.97
36.5 180.5 15.26
36.5 181.5 15.06
36.5 182.5 15.01
36.5 183.5 14.91
36.5 184.5 14.66
36.5 185.5 14.55
36.5 186.5 14.49
36.5 187.5 14.37
36.5 188.5 14.08
36.5 189.5 14.02
36.5 190.5 14.07
36.5 191.5 14.11
36.5 192.5 14.15
36.5 193.5 14.07
36.5 194.5 14
36.5 195.5 13.93
36.5 196.5 14.11
36.5 197.5 14.12
36.5 198.5 14.13
36.5 199.5 14.18
36.5 200.5 14.21
36.5 201.5 14.24
36.5 202.5 14.24
36.5 203.5 14.25
36.5 204.5 14.23
36.5 205.5 14.13
36.5 206.5 13.99
36.5 207.5 13.95
36.5 208.5 14.02
36.5 209.5 13.96
35.5 180.5 15.85
35.5 181.5 15.6
35.5 182.5 15.55
35.5 183.5 15.42
35.5 184.5 15.05
35.5 185.5 14.89
35.5 186.5 14.79
35.5 187.5 14.68
35.5 188.5 14.65
35.5 189.5 14.69
35.5 190.5 14.81
35.5 191.5 14.95
35.5 192.5 15.22
35.5 193.5 15.2
35.5 194.5 15.14
35.5 195.5 15.08
35.5 196.5 15.22
35.5 197.5 15.22
35.5 198.5 15.22
35.5 199.5 15.26
35.5 200.5 15.33
35.5 201.5 15.3
35.5 202.5 15.24
35.5 203.5 15.18
35.5 204.5 15.1
35.5 205.5 15
35.5 206.5 14.9
35.5 207.5 14.87
35.5 208.5 14.91
35.5 209.5 14.82
34.5 180.5 16.39
34.5 181.5 16.16
34.5 182.5 16.17
34.5 183.5 16.14
34.5 184.5 15.83
34.5 185.5 15.69
34.5 186.5 15.55
34.5 187.5 15.45
34.5 188.5 15.61
34.5 189.5 15.72
34.5 190.5 15.89
34.5 191.5 16.1
34.5 192.5 16.51
34.5 193.5 16.52
34.5 194.5 16.47
34.5 195.5 16.39
34.5 196.5 16.48
34.5 197.5 16.46
34.5 198.5 16.44
34.5 199.5 16.42
34.5 200.5 16.41
34.5 201.5 16.34
34.5 202.5 16.25
34.5 203.5 16.19
34.5 204.5 16.12
34.5 205.5 16.04
34.5 206.5 15.94
34.5 207.5 15.9
34.5 208.5 15.94
34.5 209.5 15.82
33.5 180.5 16.97
33.5 181.5 16.82
33.5 182.5 16.89
33.5 183.5 16.95
33.5 184.5 16.79
33.5 185.5 16.67
33.5 186.5 16.48
33.5 187.5 16.36
33.5 188.5 16.67
33.5 189.5 16.85
33.5 190.5 17.07
33.5 191.5 17.34
33.5 192.5 17.81
33.5 193.5 17.84
33.5 194.5 17.79
33.5 195.5 17.69
33.5 196.5 17.66
33.5 197.5 17.61
33.5 198.5 17.56
33.5 199.5 17.48
33.5 200.5 17.38
33.5 201.5 17.28
33.5 202.5 17.21
33.5 203.5 17.16
33.5 204.5 17.12
33.5 205.5 17.03
33.5 206.5 16.91
33.5 207.5 16.83
33.5 208.5 16.83
33.5 209.5 16.67
32.5 180.5 17.62
32.5 181.5 17.59
32.5 182.5 17.71
32.5 183.5 17.79
32.5 184.5 17.82
32.5 185.5 17.67
32.5 186.5 17.42
32.5 187.5 17.31
32.5 188.5 17.76
32.5 189.5 18
32.5 190.5 18.25
32.5 191.5 18.55
32.5 192.5 19
32.5 193.5 19.05
32.5 194.5 18.99
32.5 195.5 18.86
32.5 196.5 18.68
32.5 197.5 18.59
32.5 198.5 18.52
32.5 199.5 18.41
32.5 200.5 18.28
32.5 201.5 18.2
32.5 202.5 18.13
32.5 203.5 18.07
32.5 204.5 18.03
32.5 205.5 17.91
32.5 206.5 17.76
32.5 207.5 17.63
32.5 208.5 17.54
32.5 209.5 17.35
31.5 180.5 18.41
31.5 181.5 18.5
31.5 182.5 18.65
31.5 183.5 18.72
31.5 184.5 18.91
31.5 185.5 18.67
31.5 186.5 18.36
31.5 187.5 18.23
31.5 188.5 18.86
31.5 189.5 19.11
31.5 190.5 19.34
31.5 191.5 19.63
31.5 192.5 19.98
31.5 193.5 20.07
31.5 194.5 20.04
31.5 195.5 19.91
31.5 196.5 19.6
31.5 197.5 19.5
31.5 198.5 19.44
31.5 199.5 19.35
31.5 200.5 19.28
31.5 201.5 19.21
31.5 202.5 19.14
31.5 203.5 19.01
31.5 204.5 18.94
31.5 205.5 18.77
31.5 206.5 18.63
31.5 207.5 18.48
31.5 208.5 18.21
31.5 209.5 18.01
30.5 180.5 19.31
30.5 181.5 19.4
30.5 182.5 19.49
30.5 183.5 19.52
30.5 184.5 19.77
30.5 185.5 19.6
30.5 186.5 19.38
30.5 187.5 19.36
30.5 188.5 20.02
30.5 189.5 20.25
30.5 190.5 20.43
30.5 191.5 20.65
30.5 192.5 20.85
30.5 193.5 20.92
30.5 194.5 20.89
30.5 195.5 20.73
30.5 196.5 20.38
30.5 197.5 20.29
30.5 198.5 20.28
30.5 199.5 20.23
30.5 200.5 20.15
30.5 201.5 20.1
30.5 202.5 20.05
30.5 203.5 19.91
30.5 204.5 19.77
30.5 205.5 19.55
30.5 206.5 19.41
30.5 207.5 19.29
30.5 208.5 19.11
30.5 209.5 18.94
29.5 180.5 20.33
29.5 181.5 20.34
29.5 182.5 20.36
29.5 183.5 20.35
29.5 184.5 20.64
29.5 185.5 20.59
29.5 186.5 20.54
29.5 187.5 20.65
29.5 188.5 21.18
29.5 189.5 21.31
29.5 190.5 21.4
29.5 191.5 21.49
29.5 192.5 21.51
29.5 193.5 21.54
29.5 194.5 21.5
29.5 195.5 21.36
29.5 196.5 21.04
29.5 197.5 21
29.5 198.5 21.02
29.5 199.5 21
29.5 200.5 20.88
29.5 201.5 20.86
29.5 202.5 20.85
29.5 203.5 20.72
29.5 204.5 20.53
29.5 205.5 20.31
29.5 206.5 20.19
29.5 207.5 20.1
29.5 208.5 20.03
29.5 209.5 19.9
28.5 180.5 21.33
28.5 181.5 21.25
28.5 182.5 21.2
28.5 183.5 21.17
28.5 184.5 21.53
28.5 185.5 21.63
28.5 186.5 21.76
28.5 187.5 21.95
28.5 188.5 22.26
28.5 189.5 22.24
28.5 190.5 22.18
28.5 191.5 22.11
28.5 192.5 21.95
28.5 193.5 21.94
28.5 194.5 21.91
28.5 195.5 21.8
28.5 196.5 21.59
28.5 197.5 21.59
28.5 198.5 21.65
28.5 199.5 21.64
28.5 200.5 21.51
28.5 201.5 21.5
28.5 202.5 21.53
28.5 203.5 21.43
28.5 204.5 21.18
28.5 205.5 21
28.5 206.5 20.93
28.5 207.5 20.88
28.5 208.5 20.85
28.5 209.5 20.73
27.5 180.5 22.15
27.5 181.5 22.02
27.5 182.5 21.94
27.5 183.5 21.9
27.5 184.5 22.4
27.5 185.5 22.56
27.5 186.5 22.75
27.5 187.5 22.94
27.5 188.5 23.06
27.5 189.5 22.89
27.5 190.5 22.71
27.5 191.5 22.55
27.5 192.5 22.32
27.5 193.5 22.36
27.5 194.5 22.41
27.5 195.5 22.37
27.5 196.5 22.32
27.5 197.5 22.3
27.5 198.5 22.33
27.5 199.5 22.29
27.5 200.5 22.22
27.5 201.5 22.18
27.5 202.5 22.19
27.5 203.5 22.1
27.5 204.5 21.79
27.5 205.5 21.67
27.5 206.5 21.67
27.5 207.5 21.64
27.5 208.5 21.57
27.5 209.5 21.46
26.5 180.5 22.97
26.5 181.5 22.87
26.5 182.5 22.8
26.5 183.5 22.74
26.5 184.5 23.14
26.5 185.5 23.31
26.5 186.5 23.53
26.5 187.5 23.69
26.5 188.5 23.65
26.5 189.5 23.37
26.5 190.5 23.1
26.5 191.5 22.9
26.5 192.5 22.79
26.5 193.5 22.88
26.5 194.5 22.96
26.5 195.5 22.97
26.5 196.5 23.02
26.5 197.5 22.96
26.5 198.5 22.91
26.5 199.5 22.81
26.5 200.5 22.67
26.5 201.5 22.65
26.5 202.5 22.7
26.5 203.5 22.66
26.5 204.5 22.35
26.5 205.5 22.29
26.5 206.5 22.33
26.5 207.5 22.3
26.5 208.5 22.21
26.5 209.5 22.08
25.5 180.5 23.78
25.5 181.5 23.77
25.5 182.5 23.73
25.5 183.5 23.64
25.5 184.5 23.88
25.5 185.5 24
25.5 186.5 24.18
25.5 187.5 24.27
25.5 188.5 24.12
25.5 189.5 23.78
25.5 190.5 23.48
25.5 191.5 23.3
25.5 192.5 23.39
25.5 193.5 23.52
25.5 194.5 23.63
25.5 195.5 23.66
25.5 196.5 23.72
25.5 197.5 23.61
25.5 198.5 23.49
25.5 199.5 23.33
25.5 200.5 23.13
25.5 201.5 23.11
25.5 202.5 23.18
25.5 203.5 23.19
25.5 204.5 22.93
25.5 205.5 22.91
25.5 206.5 22.95
25.5 207.5 22.91
25.5 208.5 22.77
25.5 209.5 22.6
24.5 180.5 24.49
24.5 181.5 24.54
24.5 182.5 24.55
24.5 183.5 24.47
24.5 184.5 24.61
24.5 185.5 24.66
24.5 186.5 24.76
24.5 187.5 24.76
24.5 188.5 24.6
24.5 189.5 24.25
24.5 190.5 23.99
24.5 191.5 23.88
24.5 192.5 24.09
24.5 193.5 24.26
24.5 194.5 24.36
24.5 195.5 24.37
24.5 196.5 24.35
24.5 197.5 24.21
24.5 198.5 24.04
24.5 199.5 23.87
24.5 200.5 23.66
24.5 201.5 23.64
24.5 202.5 23.69
24.5 203.5 23.7
24.5 204.5 23.51
24.5 205.5 23.51
24.5 206.5 23.53
24.5 207.5 23.45
24.5 208.5 23.25
24.5 209.5 23.06
23.5 180.5 25.06
23.5 181.5 25.14
23.5 182.5 25.19
23.5 183.5 25.17
23.5 184.5 25.38
23.5 185.5 25.36
23.5 186.5 25.33
23.5 187.5 25.23
23.5 188.5 25.17
23.5 189.5 24.92
23.5 190.5 24.73
23.5 191.5 24.68
23.5 192.5 24.72
23.5 193.5 24.87
23.5 194.5 24.97
23.5 195.5 24.99
23.5 196.5 24.89
23.5 197.5 24.74
23.5 198.5 24.57
23.5 199.5 24.42
23.5 200.5 24.26
23.5 201.5 24.16
23.5 202.5 24.09
23.5 203.5 24.04
23.5 204.5 23.91
23.5 205.5 23.9
23.5 206.5 23.89
23.5 207.5 23.8
23.5 208.5 23.58
23.5 209.5 23.36
22.5 180.5 25.43
22.5 181.5 25.52
22.5 182.5 25.58
22.5 183.5 25.59
22.5 184.5 25.79
22.5 185.5 25.78
22.5 186.5 25.74
22.5 187.5 25.65
22.5 188.5 25.67
22.5 189.5 25.47
22.5 190.5 25.33
22.5 191.5 25.28
22.5 192.5 25.26
22.5 193.5 25.31
22.5 194.5 25.31
22.5 195.5 25.25
22.5 196.5 25.09
22.5 197.5 24.97
22.5 198.5 24.86
22.5 199.5 24.79
22.5 200.5 24.71
22.5 201.5 24.62
22.5 202.5 24.49
22.5 203.5 24.37
22.5 204.5 24.21
22.5 205.5 24.13
22.5 206.5 24.04
22.5 207.5 23.9
22.5 208.5 23.7
22.5 209.5 23.51
21.5 180.5 25.8
21.5 181.5 25.87
21.5 182.5 25.92
21.5 183.5 25.93
21.5 184.5 26.05
21.5 185.5 26.06
21.5 186.5 26.04
21.5 187.5 25.98
21.5 188.5 26.04
21.5 189.5 25.88
21.5 190.5 25.75
21.5 191.5 25.69
21.5 192.5 25.67
21.5 193.5 25.63
21.5 194.5 25.54
21.5 195.5 25.43
21.5 196.5 25.28
21.5 197.5 25.19
21.5 198.5 25.14
21.5 199.5 25.13
21.5 200.5 25.08
21.5 201.5 24.99
21.5 202.5 24.83
21.5 203.5 24.66
21.5 204.5 24.42
21.5 205.5 24.27
21.5 206.5 24.12
21.5 207.5 23.97
21.5 208.5 23.82
21.5 209.5 23.66
20.5 180.5 26.19
20.5 181.5 26.22
20.5 182.5 26.26
20.5 183.5 26.25
20.5 184.5 26.26
20.5 185.5 26.28
20.5 186.5 26.28
20.5 187.5 26.24
20.5 188.5 26.27
20.5 189.5 26.15
20.5 190.5 26.03
20.5 191.5 25.95
20.5 192.5 25.97
20.5 193.5 25.88
20.5 194.5 25.75
20.5 195.5 25.63
20.5 196.5 25.52
20.5 197.5 25.46
20.5 198.5 25.42
20.5 199.5 25.43
20.5 200.5 25.35
20.5 201.5 25.25
20.5 202.5 25.07
20.5 203.5 24.85
20.5 204.5 24.6
20.5 205.5 24.41
20.5 206.5 24.24
20.5 207.5 24.12
20.5 208.5 24.02
20.5 209.5 23.9
19.5 180.5 26.51
19.5 181.5 26.53
19.5 182.5 26.54
19.5 183.5 26.53
19.5 184.5 26.5
19.5 185.5 26.51
19.5 186.5 26.49
19.5 187.5 26.44
19.5 188.5 26.43
19.5 189.5 26.34
19.5 190.5 26.24
19.5 191.5 26.17
19.5 192.5 26.15
19.5 193.5 26.06
19.5 194.5 25.96
19.5 195.5 25.86
19.5 196.5 25.75
19.5 197.5 25.66
19.5 198.5 25.59
19.5 199.5 25.51
19.5 200.5 25.42
19.5 201.5 25.28
19.5 202.5 25.09
19.5 203.5 24.91
19.5 204.5 24.77
19.5 205.5 24.61
19.5 206.5 24.46
19.5 207.5 24.36
19.5 208.5 24.23
19.5 209.5 24.13
18.5 180.5 26.65
18.5 181.5 26.65
18.5 182.5 26.66
18.5 183.5 26.66
18.5 184.5 26.63
18.5 185.5 26.63
18.5 186.5 26.61
18.5 187.5 26.57
18.5 188.5 26.53
18.5 189.5 26.46
18.5 190.5 26.38
18.5 191.5 26.31
18.5 192.5 26.26
18.5 193.5 26.16
18.5 194.5 26.05
18.5 195.5 25.95
18.5 196.5 25.8
18.5 197.5 25.66
18.5 198.5 25.53
18.5 199.5 25.39
18.5 200.5 25.27
18.5 201.5 25.13
18.5 202.5 25
18.5 203.5 24.89
18.5 204.5 24.89
18.5 205.5 24.78
18.5 206.5 24.66
18.5 207.5 24.57
18.5 208.5 24.42
18.5 209.5 24.31
17.5 180.5 26.68
17.5 181.5 26.69
17.5 182.5 26.71
17.5 183.5 26.73
17.5 184.5 26.72
17.5 185.5 26.72
17.5 186.5 26.69
17.5 187.5 26.64
17.5 188.5 26.6
17.5 189.5 26.54
17.5 190.5 26.47
17.5 191.5 26.4
17.5 192.5 26.31
17.5 193.5 26.2
17.5 194.5 26.09
17.5 195.5 25.98
17.5 196.5 25.82
17.5 197.5 25.65
17.5 198.5 25.48
17.5 199.5 25.29
17.5 200.5 25.15
17.5 201.5 25.03
17.5 202.5 24.95
17.5 203.5 24.93
17.5 204.5 24.98
17.5 205.5 24.91
17.5 206.5 24.82
17.5 207.5 24.73
17.5 208.5 24.59
17.5 209.5 24.47
16.5 180.5 26.68
16.5 181.5 26.72
16.5 182.5 26.76
16.5 183.5 26.81
16.5 184.5 26.84
16.5 185.5 26.83
16.5 186.5 26.79
16.5 187.5 26.73
16.5 188.5 26.68
16.5 189.5 26.63
16.5 190.5 26.57
16.5 191.5 26.49
16.5 192.5 26.39
16.5 193.5 26.27
16.5 194.5 26.15
16.5 195.5 26.03
16.5 196.5 25.9
16.5 197.5 25.73
16.5 198.5 25.55
16.5 199.5 25.37
16.5 200.5 25.23
16.5 201.5 25.15
16.5 202.5 25.1
16.5 203.5 25.1
16.5 204.5 25.11
16.5 205.5 25.05
16.5 206.5 24.96
16.5 207.5 24.86
16.5 208.5 24.77
16.5 209.5 24.67
15.5 180.5 26.73
15.5 181.5 26.81
15.5 182.5 26.89
15.5 183.5 26.97
15.5 184.5 27.01
15.5 185.5 26.98
15.5 186.5 26.94
15.5 187.5 26.88
15.5 188.5 26.85
15.5 189.5 26.81
15.5 190.5 26.76
15.5 191.5 26.7
15.5 192.5 26.6
15.5 193.5 26.47
15.5 194.5 26.33
15.5 195.5 26.21
15.5 196.5 26.11
15.5 197.5 25.97
15.5 198.5 25.81
15.5 199.5 25.67
15.5 200.5 25.55
15.5 201.5 25.48
15.5 202.5 25.42
15.5 203.5 25.37
15.5 204.5 25.28
15.5 205.5 25.19
15.5 206.5 25.08
15.5 207.5 24.97
15.5 208.5 24.93
15.5 209.5 24.86
14.5 180.5 26.81
14.5 181.5 26.89
14.5 182.5 26.98
14.5 183.5 27.06
14.5 184.5 27.12
14.5 185.5 27.1
14.5 186.5 27.06
14.5 187.5 27.01
14.5 188.5 27.01
14.5 189.5 26.98
14.5 190.5 26.94
14.5 191.5 26.89
14.5 192.5 26.8
14.5 193.5 26.66
14.5 194.5 26.51
14.5 195.5 26.38
14.5 196.5 26.28
14.5 197.5 26.17
14.5 198.5 26.06
14.5 199.5 25.96
14.5 200.5 25.87
14.5 201.5 25.83
14.5 202.5 25.78
14.5 203.5 25.73
14.5 204.5 25.59
14.5 205.5 25.48
14.5 206.5 25.38
14.5 207.5 25.3
14.5 208.5 25.31
14.5 209.5 25.27
13.5 180.5 26.93
13.5 181.5 27
13.5 182.5 27.06
13.5 183.5 27.13
13.5 184.5 27.22
13.5 185.5 27.2
13.5 186.5 27.16
13.5 187.5 27.13
13.5 188.5 27.17
13.5 189.5 27.15
13.5 190.5 27.12
13.5 191.5 27.09
13.5 192.5 27
13.5 193.5 26.87
13.5 194.5 26.73
13.5 195.5 26.59
13.5 196.5 26.47
13.5 197.5 26.38
13.5 198.5 26.3
13.5 199.5 26.23
13.5 200.5 26.15
13.5 201.5 26.14
13.5 202.5 26.13
13.5 203.5 26.08
13.5 204.5 25.95
13.5 205.5 25.86
13.5 206.5 25.79
13.5 207.5 25.74
13.5 208.5 25.77
13.5 209.5 25.75
12.5 180.5 27.1
12.5 181.5 27.14
12.5 182.5 27.17
12.5 183.5 27.21
12.5 184.5 27.33
12.5 185.5 27.31
12.5 186.5 27.28
12.5 187.5 27.26
12.5 188.5 27.33
12.5 189.5 27.32
12.5 190.5 27.3
12.5 191.5 27.28
12.5 192.5 27.19
12.5 193.5 27.07
12.5 194.5 26.95
12.5 195.5 26.83
12.5 196.5 26.68
12.5 197.5 26.61
12.5 198.5 26.54
12.5 199.5 26.48
12.5 200.5 26.42
12.5 201.5 26.43
12.5 202.5 26.45
12.5 203.5 26.43
12.5 204.5 26.37
12.5 205.5 26.31
12.5 206.5 26.28
12.5 207.5 26.26
12.5 208.5 26.27
12.5 209.5 26.27
11.5 180.5 27.42
11.5 181.5 27.46
11.5 182.5 27.48
11.5 183.5 27.51
11.5 184.5 27.56
11.5 185.5 27.52
11.5 186.5 27.48
11.5 187.5 27.45
11.5 188.5 27.52
11.5 189.5 27.51
11.5 190.5 27.5
11.5 191.5 27.48
11.5 192.5 27.39
11.5 193.5 27.31
11.5 194.5 27.22
11.5 195.5 27.12
11.5 196.5 26.95
11.5 197.5 26.87
11.5 198.5 26.81
11.5 199.5 26.75
11.5 200.5 26.74
11.5 201.5 26.78
11.5 202.5 26.83
11.5 203.5 26.85
11.5 204.5 26.87
11.5 205.5 26.83
11.5 206.5 26.8
11.5 207.5 26.78
11.5 208.5 26.74
11.5 209.5 26.71
10.5 180.5 27.72
10.5 181.5 27.73
10.5 182.5 27.74
10.5 183.5 27.74
10.5 184.5 27.78
10.5 185.5 27.73
10.5 186.5 27.67
10.5 187.5 27.63
10.5 188.5 27.68
10.5 189.5 27.65
10.5 190.5 27.63
10.5 191.5 27.59
10.5 192.5 27.54
10.5 193.5 27.48
10.5 194.5 27.43
10.5 195.5 27.38
10.5 196.5 27.24
10.5 197.5 27.19
10.5 198.5 27.14
10.5 199.5 27.09
10.5 200.5 27.12
10.5 201.5 27.18
10.5 202.5 27.23
10.5 203.5 27.27
10.5 204.5 27.28
10.5 205.5 27.24
10.5 206.5 27.2
10.5 207.5 27.14
10.5 208.5 26.99
10.5 209.5 26.94
