39.5 180.5 10.88
39.5 181.5 10.88
39.5 182.5 10.8
39.5 183.5 10.82
39.5 184.5 11.31
39.5 185.5 11.19
39.5 186.5 10.81
39.5 187.5 10.5
39.5 188.5 10.72
39.5 189.5 10.65
39.5 190.5 10.54
39.5 191.5 10.44
39.5 192.5 10.5
39.5 193.5 10.6
39.5 194.5 10.72
39.5 195.5 10.73
39.5 196.5 10.43
39.5 197.5 10.22
39.5 198.5 10.1
39.5 199.5 10.04
39.5 200.5 10.11
39.5 201.5 10.09
39.5 202.5 10.07
39.5 203.5 10.1
39.5 204.5 10.38
39.5 205.5 10.31
39.5 206.5 10.2
39.5 207.5 10.23
39.5 208.5 10.51
39.5 209.5 10.67
38.5 180.5 11.82
38.5 181.5 11.82
38.5 182.5 11.82
38.5 183.5 11.91
38.5 184.5 12.36
38.5 185.5 12.24
38.5 186.5 11.85
38.5 187.5 11.55
38.5 188.5 11.82
38.5 189.5 11.71
38.5 190.5 11.52
38.5 191.5 11.33
38.5 192.5 11.34
38.5 193.5 11.39
38.5 194.5 11.51
38.5 195.5 11.48
38.5 196.5 11.15
38.5 197.5 10.93
38.5 198.5 10.81
38.5 199.5 10.77
38.5 200.5 10.84
38.5 201.5 10.82
38.5 202.5 10.77
38.5 203.5 10.77
38.5 204.5 11.02
38.5 205.5 10.99
38.5 206.5 10.91
38.5 207.5 10.94
38.5 208.5 11.16
38.5 209.5 11.28
37.5 180.5 12.79
37.5 181.5 12.74
37.5 182.5 12.76
37.5 183.5 12.87
37.5 184.5 13.17
37.5 185.5 13.05
37.5 186.5 12.7
37.5 187.5 12.44
37.5 188.5 12.68
37.5 189.5 12.52
37.5 190.5 12.21
37.5 191.5 11.9
37.5 192.5 11.84
37.5 193.5 11.85
37.5 194.5 11.94
37.5 195.5 11.92
37.5 196.5 11.67
37.5 197.5 11.48
37.5 198.5 11.4
37.5 199.5 11.4
37.5 200.5 11.48
37.5 201.5 11.45
37.5 202.5 11.38
37.5 203.5 11.37
37.5 204.5 11.58
37.5 205.5 11.6
37.5 206.5 11.58
37.5 207.5 11.64
37.5 208.5 11.82
37.5 209.5 11.93
36.5 180.5 13.81
36.5 181.5 13.67
36.5 182.5 13.66
36.5 183.5 13.72
36.5 184.5 13.79
36.5 185.5 13.64
36.5 186.5 13.32
36.5 187.5 13.11
36.5 188.5 13.28
36.5 189.5 13.06
36.5 190.5 12.65
36.5 191.5 12.24
36.5 192.5 12.13
36.5 193.5 12.12
36.5 194.5 12.2
36.5 195.5 12.21
36.5 196.5 12.07
36.5 197.5 11.94
36.5 198.5 11.92
36.5 199.5 11.96
36.5 200.5 12.05
36.5 201.5 12.02
36.5 202.5 11.96
36.5 203.5 11.96
36.5 204.5 12.14
36.5 205.5 12.2
36.5 206.5 12.24
36.5 207.5 12.33
36.5 208.5 12.51
36.5 209.5 12.64
35.5 180.5 14.55
35.5 181.5 14.4
35.5 182.5 14.42
35.5 183.5 14.46
35.5 184.5 14.35
35.5 185.5 14.13
35.5 186.5 13.82
35.5 187.5 13.65
35.5 188.5 13.8
35.5 189.5 13.53
35.5 190.5 13.06
35.5 191.5 12.61
35.5 192.5 12.49
35.5 193.5 12.47
35.5 194.5 12.57
35.5 195.5 12.59
35.5 196.5 12.49
35.5 197.5 12.39
35.5 198.5 12.41
35.5 199.5 12.49
35.5 200.5 12.66
35.5 201.5 12.67
35.5 202.5 12.66
35.5 203.5 12.7
35.5 204.5 12.9
35.5 205.5 12.97
35.5 206.5 13
35.5 207.5 13.08
35.5 208.5 13.28
35.5 209.5 13.43
34.5 180.5 15.29
34.5 181.5 15.16
34.5 182.5 15.16
34.5 183.5 15.12
34.5 184.5 14.82
34.5 185.5 14.54
34.5 186.5 14.25
34.5 187.5 14.11
34.5 188.5 14.22
34.5 189.5 13.96
34.5 190.5 13.51
34.5 191.5 13.13
34.5 192.5 13.08
34.5 193.5 13.09
34.5 194.5 13.2
34.5 195.5 13.24
34.5 196.5 13.1
34.5 197.5 13.02
34.5 198.5 13.05
34.5 199.5 13.14
34.5 200.5 13.34
34.5 201.5 13.38
34.5 202.5 13.39
34.5 203.5 13.48
34.5 204.5 13.76
34.5 205.5 13.85
34.5 206.5 13.88
34.5 207.5 13.97
34.5 208.5 14.21
34.5 209.5 14.37
33.5 180.5 15.9
33.5 181.5 15.86
33.5 182.5 15.88
33.5 183.5 15.81
33.5 184.5 15.41
33.5 185.5 15.13
33.5 186.5 14.89
33.5 187.5 14.77
33.5 188.5 14.78
33.5 189.5 14.52
33.5 190.5 14.16
33.5 191.5 13.88
33.5 192.5 13.88
33.5 193.5 13.93
33.5 194.5 14.05
33.5 195.5 14.1
33.5 196.5 13.95
33.5 197.5 13.88
33.5 198.5 13.89
33.5 199.5 13.93
33.5 200.5 14.1
33.5 201.5 14.11
33.5 202.5 14.14
33.5 203.5 14.26
33.5 204.5 14.6
33.5 205.5 14.7
33.5 206.5 14.75
33.5 207.5 14.85
33.5 208.5 15.11
33.5 209.5 15.25
32.5 180.5 16.44
32.5 181.5 16.48
32.5 182.5 16.57
32.5 183.5 16.55
32.5 184.5 16.17
32.5 185.5 15.95
32.5 186.5 15.78
32.5 187.5 15.67
32.5 188.5 15.56
32.5 189.5 15.33
32.5 190.5 15.05
32.5 191.5 14.84
32.5 192.5 14.85
32.5 193.5 14.88
32.5 194.5 14.98
32.5 195.5 15.06
32.5 196.5 14.96
32.5 197.5 14.91
32.5 198.5 14.88
32.5 199.5 14.85
32.5 200.5 14.9
32.5 201.5 14.87
32.5 202.5 14.88
32.5 203.5 15.01
32.5 204.5 15.39
32.5 205.5 15.5
32.5 206.5 15.55
32.5 207.5 15.67
32.5 208.5 15.94
32.5 209.5 16.04
31.5 180.5 17.16
31.5 181.5 17.25
31.5 182.5 17.4
31.5 183.5 17.43
31.5 184.5 17.13
31.5 185.5 16.97
31.5 186.5 16.86
31.5 187.5 16.76
31.5 188.5 16.7
31.5 189.5 16.5
31.5 190.5 16.25
31.5 191.5 16.02
31.5 192.5 16
31.5 193.5 15.9
31.5 194.5 15.89
31.5 195.5 15.95
31.5 196.5 15.97
31.5 197.5 15.92
31.5 198.5 15.84
31.5 199.5 15.77
31.5 200.5 15.7
31.5 201.5 15.67
31.5 202.5 15.67
31.5 203.5 15.81
31.5 204.5 16.19
31.5 205.5 16.32
31.5 206.5 16.39
31.5 207.5 16.52
31.5 208.5 16.79
31.5 209.5 16.86
30.5 180.5 17.97
30.5 181.5 18.02
30.5 182.5 18.14
30.5 183.5 18.18
30.5 184.5 17.96
30.5 185.5 17.85
30.5 186.5 17.78
30.5 187.5 17.71
30.5 188.5 17.76
30.5 189.5 17.6
30.5 190.5 17.39
30.5 191.5 17.16
30.5 192.5 17.08
30.5 193.5 16.88
30.5 194.5 16.79
30.5 195.5 16.81
30.5 196.5 16.88
30.5 197.5 16.83
30.5 198.5 16.73
30.5 199.5 16.67
30.5 200.5 16.63
30.5 201.5 16.61
30.5 202.5 16.59
30.5 203.5 16.67
30.5 204.5 17
30.5 205.5 17.14
30.5 206.5 17.24
30.5 207.5 17.39
30.5 208.5 17.63
30.5 209.5 17.68
29.5 180.5 18.9
29.5 181.5 18.87
29.5 182.5 18.91
29.5 183.5 18.88
29.5 184.5 18.66
29.5 185.5 18.53
29.5 186.5 18.47
29.5 187.5 18.44
29.5 188.5 18.63
29.5 189.5 18.55
29.5 190.5 18.41
29.5 191.5 18.22
29.5 192.5 18.13
29.5 193.5 17.89
29.5 194.5 17.74
29.5 195.5 17.69
29.5 196.5 17.75
29.5 197.5 17.68
29.5 198.5 17.58
29.5 199.5 17.57
29.5 200.5 17.65
29.5 201.5 17.67
29.5 202.5 17.63
29.5 203.5 17.66
29.5 204.5 17.88
29.5 205.5 18
29.5 206.5 18.1
29.5 207.5 18.27
29.5 208.5 18.48
29.5 209.5 18.51
28.5 180.5 19.93
28.5 181.5 19.84
28.5 182.5 19.81
28.5 183.5 19.68
28.5 184.5 19.36
28.5 185.5 19.19
28.5 186.5 19.11
28.5 187.5 19.09
28.5 188.5 19.36
28.5 189.5 19.34
28.5 190.5 19.26
28.5 191.5 19.15
28.5 192.5 19.1
28.5 193.5 18.87
28.5 194.5 18.67
28.5 195.5 18.56
28.5 196.5 18.63
28.5 197.5 18.54
28.5 198.5 18.45
28.5 199.5 18.49
28.5 200.5 18.72
28.5 201.5 18.76
28.5 202.5 18.71
28.5 203.5 18.67
28.5 204.5 18.8
28.5 205.5 18.87
28.5 206.5 18.96
28.5 207.5 19.11
28.5 208.5 19.29
28.5 209.5 19.32
27.5 180.5 20.98
27.5 181.5 20.92
27.5 182.5 20.87
27.5 183.5 20.68
27.5 184.5 20.28
27.5 185.5 20.09
27.5 186.5 20.03
27.5 187.5 20.05
27.5 188.5 20.15
27.5 189.5 20.1
27.5 190.5 20.01
27.5 191.5 19.91
27.5 192.5 19.92
27.5 193.5 19.71
27.5 194.5 19.46
27.5 195.5 19.3
27.5 196.5 19.54
27.5 197.5 19.44
27.5 198.5 19.34
27.5 199.5 19.39
27.5 200.5 19.76
27.5 201.5 19.8
27.5 202.5 19.76
27.5 203.5 19.73
27.5 204.5 19.82
27.5 205.5 19.81
27.5 206.5 19.83
27.5 207.5 19.92
27.5 208.5 20.1
27.5 209.5 20.11
26.5 180.5 21.93
26.5 181.5 21.87
26.5 182.5 21.79
26.5 183.5 21.6
26.5 184.5 21.27
26.5 185.5 21.13
26.5 186.5 21.11
26.5 187.5 21.14
26.5 188.5 21.06
26.5 189.5 20.95
26.5 190.5 20.84
26.5 191.5 20.7
26.5 192.5 20.61
26.5 193.5 20.43
26.5 194.5 20.23
26.5 195.5 20.13
26.5 196.5 20.57
26.5 197.5 20.51
26.5 198.5 20.43
26.5 199.5 20.46
26.5 200.5 20.83
26.5 201.5 20.84
26.5 202.5 20.77
26.5 203.5 20.7
26.5 204.5 20.71
26.5 205.5 20.64
26.5 206.5 20.62
26.5 207.5 20.66
26.5 208.5 20.83
26.5 209.5 20.82
25.5 180.5 22.81
25.5 181.5 22.75
25.5 182.5 22.66
25.5 183.5 22.49
25.5 184.5 22.29
25.5 185.5 22.22
25.5 186.5 22.25
25.5 187.5 22.3
25.5 188.5 22.1
25.5 189.5 21.95
25.5 190.5 21.77
25.5 191.5 21.56
25.5 192.5 21.33
25.5 193.5 21.16
25.5 194.5 21.02
25.5 195.5 21.01
25.5 196.5 21.55
25.5 197.5 21.55
25.5 198.5 21.48
25.5 199.5 21.48
25.5 200.5 21.77
25.5 201.5 21.74
25.5 202.5 21.65
25.5 203.5 21.55
25.5 204.5 21.53
25.5 205.5 21.45
25.5 206.5 21.41
25.5 207.5 21.42
25.5 208.5 21.55
25.5 209.5 21.5
24.5 180.5 23.49
24.5 181.5 23.43
24.5 182.5 23.32
24.5 183.5 23.16
24.5 184.5 23.06
24.5 185.5 23.05
24.5 186.5 23.13
24.5 187.5 23.22
24.5 188.5 23.07
24.5 189.5 22.89
24.5 190.5 22.68
24.5 191.5 22.4
24.5 192.5 22.12
24.5 193.5 21.97
24.5 194.5 21.89
24.5 195.5 21.93
24.5 196.5 22.44
24.5 197.5 22.45
24.5 198.5 22.38
24.5 199.5 22.34
24.5 200.5 22.5
24.5 201.5 22.45
24.5 202.5 22.34
24.5 203.5 22.26
24.5 204.5 22.29
24.5 205.5 22.24
24.5 206.5 22.2
24.5 207.5 22.17
24.5 208.5 22.24
24.5 209.5 22.16
23.5 180.5 23.79
23.5 181.5 23.74
23.5 182.5 23.65
23.5 183.5 23.54
23.5 184.5 23.46
23.5 185.5 23.49
23.5 186.5 23.61
23.5 187.5 23.76
23.5 188.5 23.79
23.5 189.5 23.65
23.5 190.5 23.45
23.5 191.5 23.2
23.5 192.5 23.02
23.5 193.5 22.93
23.5 194.5 22.89
23.5 195.5 22.94
23.5 196.5 23.16
23.5 197.5 23.15
23.5 198.5 23.07
23.5 199.5 22.98
23.5 200.5 23
23.5 201.5 22.93
23.5 202.5 22.87
23.5 203.5 22.86
23.5 204.5 23.04
23.5 205.5 23
23.5 206.5 22.92
23.5 207.5 22.8
23.5 208.5 22.79
23.5 209.5 22.68
22.5 180.5 24.15
22.5 181.5 24.08
22.5 182.5 23.99
22.5 183.5 23.87
22.5 184.5 23.8
22.5 185.5 23.82
22.5 186.5 23.93
22.5 187.5 24.09
22.5 188.5 24.24
22.5 189.5 24.2
22.5 190.5 24.09
22.5 191.5 23.94
22.5 192.5 23.86
22.5 193.5 23.8
22.5 194.5 23.77
22.5 195.5 23.77
22.5 196.5 23.78
22.5 197.5 23.75
22.5 198.5 23.69
22.5 199.5 23.6
22.5 200.5 23.53
22.5 201.5 23.46
22.5 202.5 23.41
22.5 203.5 23.43
22.5 204.5 23.6
22.5 205.5 23.57
22.5 206.5 23.47
22.5 207.5 23.3
22.5 208.5 23.19
22.5 209.5 23.06
21.5 180.5 24.55
21.5 181.5 24.48
21.5 182.5 24.39
21.5 183.5 24.3
21.5 184.5 24.27
21.5 185.5 24.28
21.5 186.5 24.36
21.5 187.5 24.49
21.5 188.5 24.67
21.5 189.5 24.71
21.5 190.5 24.69
21.5 191.5 24.63
21.5 192.5 24.6
21.5 193.5 24.56
21.5 194.5 24.53
21.5 195.5 24.48
21.5 196.5 24.36
21.5 197.5 24.31
21.5 198.5 24.26
21.5 199.5 24.18
21.5 200.5 24.08
21.5 201.5 24.02
21.5 202.5 24
21.5 203.5 24.01
21.5 204.5 24.1
21.5 205.5 24.05
21.5 206.5 23.91
21.5 207.5 23.71
21.5 208.5 23.51
21.5 209.5 23.37
20.5 180.5 25.01
20.5 181.5 24.97
20.5 182.5 24.91
20.5 183.5 24.87
20.5 184.5 24.89
20.5 185.5 24.89
20.5 186.5 24.92
20.5 187.5 25
20.5 188.5 25.11
20.5 189.5 25.18
20.5 190.5 25.21
20.5 191.5 25.2
20.5 192.5 25.17
20.5 193.5 25.12
20.5 194.5 25.07
20.5 195.5 25
20.5 196.5 24.85
20.5 197.5 24.8
20.5 198.5 24.77
20.5 199.5 24.71
20.5 200.5 24.61
20.5 201.5 24.57
20.5 202.5 24.56
20.5 203.5 24.55
20.5 204.5 24.52
20.5 205.5 24.43
20.5 206.5 24.26
20.5 207.5 24.03
20.5 208.5 23.79
20.5 209.5 23.66
19.5 180.5 25.49
19.5 181.5 25.46
19.5 182.5 25.42
19.5 183.5 25.41
19.5 184.5 25.42
19.5 185.5 25.44
19.5 186.5 25.47
19.5 187.5 25.49
19.5 188.5 25.51
19.5 189.5 25.55
19.5 190.5 25.56
19.5 191.5 25.55
19.5 192.5 25.49
19.5 193.5 25.42
19.5 194.5 25.36
19.5 195.5 25.29
19.5 196.5 25.2
19.5 197.5 25.17
19.5 198.5 25.16
19.5 199.5 25.13
19.5 200.5 25.06
19.5 201.5 25.04
19.5 202.5 25.02
19.5 203.5 24.98
19.5 204.5 24.86
19.5 205.5 24.7
19.5 206.5 24.5
19.5 207.5 24.25
19.5 208.5 24.01
19.5 209.5 23.91
18.5 180.5 25.88
18.5 181.5 25.86
18.5 182.5 25.83
18.5 183.5 25.81
18.5 184.5 25.8
18.5 185.5 25.78
18.5 186.5 25.77
18.5 187.5 25.75
18.5 188.5 25.72
18.5 189.5 25.71
18.5 190.5 25.7
18.5 191.5 25.67
18.5 192.5 25.61
18.5 193.5 25.56
18.5 194.5 25.51
18.5 195.5 25.48
18.5 196.5 25.45
18.5 197.5 25.43
18.5 198.5 25.4
18.5 199.5 25.35
18.5 200.5 25.25
18.5 201.5 25.21
18.5 202.5 25.17
18.5 203.5 25.11
18.5 204.5 24.99
18.5 205.5 24.85
18.5 206.5 24.65
18.5 207.5 24.44
18.5 208.5 24.26
18.5 209.5 24.17
17.5 180.5 26.08
17.5 181.5 26.06
17.5 182.5 26.04
17.5 183.5 26.01
17.5 184.5 25.97
17.5 185.5 25.92
17.5 186.5 25.87
17.5 187.5 25.82
17.5 188.5 25.78
17.5 189.5 25.74
17.5 190.5 25.71
17.5 191.5 25.68
17.5 192.5 25.63
17.5 193.5 25.6
17.5 194.5 25.59
17.5 195.5 25.58
17.5 196.5 25.58
17.5 197.5 25.55
17.5 198.5 25.5
17.5 199.5 25.43
17.5 200.5 25.29
17.5 201.5 25.23
17.5 202.5 25.15
17.5 203.5 25.09
17.5 204.5 25
17.5 205.5 24.92
17.5 206.5 24.78
17.5 207.5 24.63
17.5 208.5 24.52
17.5 209.5 24.45
16.5 180.5 26.14
16.5 181.5 26.13
16.5 182.5 26.11
16.5 183.5 26.08
16.5 184.5 26.02
16.5 185.5 25.95
16.5 186.5 25.88
16.5 187.5 25.82
16.5 188.5 25.78
16.5 189.5 25.74
16.5 190.5 25.7
16.5 191.5 25.67
16.5 192.5 25.65
16.5 193.5 25.65
16.5 194.5 25.66
16.5 195.5 25.68
16.5 196.5 25.66
16.5 197.5 25.61
16.5 198.5 25.54
16.5 199.5 25.45
16.5 200.5 25.28
16.5 201.5 25.2
16.5 202.5 25.12
16.5 203.5 25.07
16.5 204.5 25.02
16.5 205.5 25.01
16.5 206.5 24.95
16.5 207.5 24.85
16.5 208.5 24.8
16.5 209.5 24.74
15.5 180.5 26.18
15.5 181.5 26.19
15.5 182.5 26.16
15.5 183.5 26.11
15.5 184.5 26.05
15.5 185.5 25.97
15.5 186.5 25.9
15.5 187.5 25.85
15.5 188.5 25.81
15.5 189.5 25.81
15.5 190.5 25.79
15.5 191.5 25.78
15.5 192.5 25.79
15.5 193.5 25.8
15.5 194.5 25.81
15.5 195.5 25.83
15.5 196.5 25.74
15.5 197.5 25.67
15.5 198.5 25.58
15.5 199.5 25.47
15.5 200.5 25.28
15.5 201.5 25.22
15.5 202.5 25.18
15.5 203.5 25.17
15.5 204.5 25.19
15.5 205.5 25.22
15.5 206.5 25.2
15.5 207.5 25.13
15.5 208.5 25.1
15.5 209.5 25.03
14.5 180.5 26.28
14.5 181.5 26.29
14.5 182.5 26.28
14.5 183.5 26.23
14.5 184.5 26.14
14.5 185.5 26.04
14.5 186.5 25.95
14.5 187.5 25.89
14.5 188.5 25.87
14.5 189.5 25.89
14.5 190.5 25.9
14.5 191.5 25.91
14.5 192.5 25.96
14.5 193.5 25.98
14.5 194.5 25.99
14.5 195.5 25.98
14.5 196.5 25.85
14.5 197.5 25.76
14.5 198.5 25.67
14.5 199.5 25.56
14.5 200.5 25.39
14.5 201.5 25.36
14.5 202.5 25.36
14.5 203.5 25.39
14.5 204.5 25.48
14.5 205.5 25.54
14.5 206.5 25.55
14.5 207.5 25.49
14.5 208.5 25.42
14.5 209.5 25.32
13.5 180.5 26.39
13.5 181.5 26.39
13.5 182.5 26.37
13.5 183.5 26.32
13.5 184.5 26.21
13.5 185.5 26.11
13.5 186.5 26.02
13.5 187.5 25.96
13.5 188.5 25.99
13.5 189.5 26.01
13.5 190.5 26.03
13.5 191.5 26.04
13.5 192.5 26.11
13.5 193.5 26.12
13.5 194.5 26.13
13.5 195.5 26.1
13.5 196.5 25.95
13.5 197.5 25.86
13.5 198.5 25.79
13.5 199.5 25.69
13.5 200.5 25.56
13.5 201.5 25.57
13.5 202.5 25.61
13.5 203.5 25.7
13.5 204.5 25.81
13.5 205.5 25.89
13.5 206.5 25.91
13.5 207.5 25.84
13.5 208.5 25.72
13.5 209.5 25.59
12.5 180.5 26.5
12.5 181.5 26.49
12.5 182.5 26.45
12.5 183.5 26.39
12.5 184.5 26.29
12.5 185.5 26.21
12.5 186.5 26.14
12.5 187.5 26.12
12.5 188.5 26.18
12.5 189.5 26.2
12.5 190.5 26.2
12.5 191.5 26.19
12.5 192.5 26.24
12.5 193.5 26.25
12.5 194.5 26.25
12.5 195.5 26.22
12.5 196.5 26.1
12.5 197.5 26.02
12.5 198.5 25.95
12.5 199.5 25.88
12.5 200.5 25.81
12.5 201.5 25.84
12.5 202.5 25.93
12.5 203.5 26.06
12.5 204.5 26.19
12.5 205.5 26.27
12.5 206.5 26.28
12.5 207.5 26.19
12.5 208.5 26.02
12.5 209.5 25.86
11.5 180.5 26.63
11.5 181.5 26.57
11.5 182.5 26.5
11.5 183.5 26.42
11.5 184.5 26.38
11.5 185.5 26.36
11.5 186.5 26.34
11.5 187.5 26.36
11.5 188.5 26.44
11.5 189.5 26.46
11.5 190.5 26.44
11.5 191.5 26.42
11.5 192.5 26.44
11.5 193.5 26.45
11.5 194.5 26.47
11.5 195.5 26.45
11.5 196.5 26.39
11.5 197.5 26.32
11.5 198.5 26.25
11.5 199.5 26.16
11.5 200.5 26.15
11.5 201.5 26.21
11.5 202.5 26.33
11.5 203.5 26.49
11.5 204.5 26.6
11.5 205.5 26.68
11.5 206.5 26.69
11.5 207.5 26.59
11.5 208.5 26.39
11.5 209.5 26.2
10.5 180.5 26.83
10.5 181.5 26.76
10.5 182.5 26.69
10.5 183.5 26.62
10.5 184.5 26.6
10.5 185.5 26.61
10.5 186.5 26.63
10.5 187.5 26.69
10.5 188.5 26.78
10.5 189.5 26.79
10.5 190.5 26.75
10.5 191.5 26.7
10.5 192.5 26.71
10.5 193.5 26.75
10.5 194.5 26.8
10.5 195.5 26.82
10.5 196.5 26.81
10.5 197.5 26.74
10.5 198.5 26.67
10.5 199.5 26.57
10.5 200.5 26.54
10.5 201.5 26.58
10.5 202.5 26.69
10.5 203.5 26.84
10.5 204.5 26.97
10.5 205.5 27.06
10.5 206.5 27.07
10.5 207.5 26.99
10.5 208.5 26.79
10.5 209.5 26.61
