39.5 180.5 15.79
39.5 181.5 15.72
39.5 182.5 15.75
39.5 183.5 15.78
39.5 184.5 15.61
39.5 185.5 15.46
39.5 186.5 15.36
39.5 187.5 15.25
39.5 188.5 14.97
39.5 189.5 14.95
39.5 190.5 15
39.5 191.5 15.03
39.5 192.5 14.77
39.5 193.5 14.84
39.5 194.5 14.95
39.5 195.5 15.03
39.5 196.5 14.83
39.5 197.5 14.89
39.5 198.5 15.06
39.5 199.5 15.23
39.5 200.5 15.57
39.5 201.5 15.85
39.5 202.5 16.19
39.5 203.5 16.53
39.5 204.5 16.87
39.5 205.5 17.17
39.5 206.5 17.51
39.5 207.5 17.86
39.5 208.5 18.57
39.5 209.5 18.77
38.5 180.5 17.06
38.5 181.5 17.07
38.5 182.5 17.11
38.5 183.5 17.1
38.5 184.5 16.94
38.5 185.5 16.78
38.5 186.5 16.68
38.5 187.5 16.55
38.5 188.5 16.2
38.5 189.5 16.16
38.5 190.5 16.21
38.5 191.5 16.21
38.5 192.5 15.82
38.5 193.5 15.8
38.5 194.5 15.87
38.5 195.5 15.93
38.5 196.5 15.65
38.5 197.5 15.7
38.5 198.5 15.85
38.5 199.5 16.02
38.5 200.5 16.43
38.5 201.5 16.74
38.5 202.5 17.08
38.5 203.5 17.42
38.5 204.5 17.7
38.5 205.5 17.96
38.5 206.5 18.25
38.5 207.5 18.55
38.5 208.5 19.11
38.5 209.5 19.26
37.5 180.5 18.31
37.5 181.5 18.37
37.5 182.5 18.41
37.5 183.5 18.35
37.5 184.5 18.15
37.5 185.5 17.96
37.5 186.5 17.87
37.5 187.5 17.71
37.5 188.5 17.25
37.5 189.5 17.18
37.5 190.5 17.24
37.5 191.5 17.24
37.5 192.5 16.77
37.5 193.5 16.69
37.5 194.5 16.73
37.5 195.5 16.81
37.5 196.5 16.57
37.5 197.5 16.65
37.5 198.5 16.77
37.5 199.5 16.91
37.5 200.5 17.32
37.5 201.5 17.64
37.5 202.5 17.96
37.5 203.5 18.27
37.5 204.5 18.56
37.5 205.5 18.77
37.5 206.5 19.02
37.5 207.5 19.25
37.5 208.5 19.64
37.5 209.5 19.73
36.5 180.5 19.45
36.5 181.5 19.5
36.5 182.5 19.52
36.5 183.5 19.41
36.5 184.5 19.16
36.5 185.5 18.97
36.5 186.5 18.91
36.5 187.5 18.75
36.5 188.5 18.22
36.5 189.5 18.11
36.5 190.5 18.15
36.5 191.5 18.13
36.5 192.5 17.67
36.5 193.5 17.57
36.5 194.5 17.61
36.5 195.5 17.73
36.5 196.5 17.61
36.5 197.5 17.7
36.5 198.5 17.78
36.5 199.5 17.88
36.5 200.5 18.2
36.5 201.5 18.5
36.5 202.5 18.81
36.5 203.5 19.11
36.5 204.5 19.46
36.5 205.5 19.63
36.5 206.5 19.82
36.5 207.5 19.98
36.5 208.5 20.2
36.5 209.5 20.24
35.5 180.5 20.54
35.5 181.5 20.48
35.5 182.5 20.41
35.5 183.5 20.2
35.5 184.5 19.74
35.5 185.5 19.57
35.5 186.5 19.57
35.5 187.5 19.49
35.5 188.5 19.06
35.5 189.5 18.93
35.5 190.5 18.92
35.5 191.5 18.86
35.5 192.5 18.47
35.5 193.5 18.4
35.5 194.5 18.47
35.5 195.5 18.66
35.5 196.5 18.64
35.5 197.5 18.76
35.5 198.5 18.83
35.5 199.5 18.93
35.5 200.5 19.19
35.5 201.5 19.46
35.5 202.5 19.72
35.5 203.5 19.98
35.5 204.5 20.36
35.5 205.5 20.48
35.5 206.5 20.59
35.5 207.5 20.67
35.5 208.5 20.7
35.5 209.5 20.7
34.5 180.5 21.4
34.5 181.5 21.27
34.5 182.5 21.15
34.5 183.5 20.9
34.5 184.5 20.4
34.5 185.5 20.21
34.5 186.5 20.19
34.5 187.5 20.14
34.5 188.5 19.86
34.5 189.5 19.76
34.5 190.5 19.74
34.5 191.5 19.68
34.5 192.5 19.42
34.5 193.5 19.35
34.5 194.5 19.39
34.5 195.5 19.54
34.5 196.5 19.52
34.5 197.5 19.62
34.5 198.5 19.68
34.5 199.5 19.76
34.5 200.5 19.93
34.5 201.5 20.16
34.5 202.5 20.37
34.5 203.5 20.59
34.5 204.5 21
34.5 205.5 21.11
34.5 206.5 21.2
34.5 207.5 21.27
34.5 208.5 21.25
34.5 209.5 21.22
33.5 180.5 22.22
33.5 181.5 22.07
33.5 182.5 21.93
33.5 183.5 21.66
33.5 184.5 21.16
33.5 185.5 20.94
33.5 186.5 20.88
33.5 187.5 20.82
33.5 188.5 20.74
33.5 189.5 20.68
33.5 190.5 20.66
33.5 191.5 20.62
33.5 192.5 20.49
33.5 193.5 20.4
33.5 194.5 20.37
33.5 195.5 20.43
33.5 196.5 20.4
33.5 197.5 20.48
33.5 198.5 20.55
33.5 199.5 20.62
33.5 200.5 20.72
33.5 201.5 20.88
33.5 202.5 21.03
33.5 203.5 21.18
33.5 204.5 21.49
33.5 205.5 21.61
33.5 206.5 21.71
33.5 207.5 21.8
33.5 208.5 21.79
33.5 209.5 21.73
32.5 180.5 23
32.5 181.5 22.88
32.5 182.5 22.73
32.5 183.5 22.49
32.5 184.5 22.07
32.5 185.5 21.84
32.5 186.5 21.72
32.5 187.5 21.63
32.5 188.5 21.7
32.5 189.5 21.66
32.5 190.5 21.64
32.5 191.5 21.59
32.5 192.5 21.56
32.5 193.5 21.42
32.5 194.5 21.31
32.5 195.5 21.27
32.5 196.5 21.27
32.5 197.5 21.33
32.5 198.5 21.41
32.5 199.5 21.49
32.5 200.5 21.54
32.5 201.5 21.62
32.5 202.5 21.69
32.5 203.5 21.78
32.5 204.5 21.95
32.5 205.5 22.07
32.5 206.5 22.19
32.5 207.5 22.29
32.5 208.5 22.32
32.5 209.5 22.24
31.5 180.5 23.49
31.5 181.5 23.45
31.5 182.5 23.39
31.5 183.5 23.3
31.5 184.5 23.09
31.5 185.5 22.91
31.5 186.5 22.72
31.5 187.5 22.54
31.5 188.5 22.67
31.5 189.5 22.6
31.5 190.5 22.54
31.5 191.5 22.49
31.5 192.5 22.55
31.5 193.5 22.38
31.5 194.5 22.23
31.5 195.5 22.11
31.5 196.5 22.12
31.5 197.5 22.15
31.5 198.5 22.22
31.5 199.5 22.28
31.5 200.5 22.28
31.5 201.5 22.33
31.5 202.5 22.39
31.5 203.5 22.47
31.5 204.5 22.51
31.5 205.5 22.59
31.5 206.5 22.67
31.5 207.5 22.74
31.5 208.5 22.8
31.5 209.5 22.72
30.5 180.5 24.02
30.5 181.5 24.04
30.5 182.5 24.05
30.5 183.5 24.08
30.5 184.5 24.12
30.5 185.5 23.99
30.5 186.5 23.77
30.5 187.5 23.53
30.5 188.5 23.56
30.5 189.5 23.47
30.5 190.5 23.39
30.5 191.5 23.34
30.5 192.5 23.42
30.5 193.5 23.26
30.5 194.5 23.1
30.5 195.5 22.95
30.5 196.5 22.94
30.5 197.5 22.94
30.5 198.5 23
30.5 199.5 23.03
30.5 200.5 22.98
30.5 201.5 23
30.5 202.5 23.04
30.5 203.5 23.09
30.5 204.5 23.07
30.5 205.5 23.12
30.5 206.5 23.18
30.5 207.5 23.23
30.5 208.5 23.29
30.5 209.5 23.22
29.5 180.5 24.56
29.5 181.5 24.6
29.5 182.5 24.67
29.5 183.5 24.78
29.5 184.5 24.94
29.5 185.5 24.85
29.5 186.5 24.62
29.5 187.5 24.34
29.5 188.5 24.23
29.5 189.5 24.11
29.5 190.5 24.03
29.5 191.5 23.99
29.5 192.5 24.09
29.5 193.5 23.97
29.5 194.5 23.85
29.5 195.5 23.72
29.5 196.5 23.69
29.5 197.5 23.68
29.5 198.5 23.71
29.5 199.5 23.72
29.5 200.5 23.66
29.5 201.5 23.66
29.5 202.5 23.67
29.5 203.5 23.68
29.5 204.5 23.63
29.5 205.5 23.66
29.5 206.5 23.69
29.5 207.5 23.73
29.5 208.5 23.77
29.5 209.5 23.7
28.5 180.5 25.11
28.5 181.5 25.16
28.5 182.5 25.26
28.5 183.5 25.4
28.5 184.5 25.49
28.5 185.5 25.41
28.5 186.5 25.18
28.5 187.5 24.89
28.5 188.5 24.65
28.5 189.5 24.53
28.5 190.5 24.47
28.5 191.5 24.47
28.5 192.5 24.57
28.5 193.5 24.52
28.5 194.5 24.45
28.5 195.5 24.37
28.5 196.5 24.33
28.5 197.5 24.31
28.5 198.5 24.31
28.5 199.5 24.28
28.5 200.5 24.24
28.5 201.5 24.21
28.5 202.5 24.21
28.5 203.5 24.2
28.5 204.5 24.19
28.5 205.5 24.18
28.5 206.5 24.19
28.5 207.5 24.2
28.5 208.5 24.21
28.5 209.5 24.15
27.5 180.5 25.65
27.5 181.5 25.71
27.5 182.5 25.83
27.5 183.5 25.94
27.5 184.5 25.88
27.5 185.5 25.76
27.5 186.5 25.56
27.5 187.5 25.3
27.5 188.5 25.04
27.5 189.5 24.93
27.5 190.5 24.9
27.5 191.5 24.94
27.5 192.5 25.03
27.5 193.5 25.04
27.5 194.5 25.01
27.5 195.5 24.96
27.5 196.5 24.88
27.5 197.5 24.81
27.5 198.5 24.74
27.5 199.5 24.65
27.5 200.5 24.6
27.5 201.5 24.59
27.5 202.5 24.6
27.5 203.5 24.62
27.5 204.5 24.67
27.5 205.5 24.63
27.5 206.5 24.58
27.5 207.5 24.53
27.5 208.5 24.54
27.5 209.5 24.49
26.5 180.5 26.26
26.5 181.5 26.33
26.5 182.5 26.44
26.5 183.5 26.49
26.5 184.5 26.33
26.5 185.5 26.21
26.5 186.5 26.02
26.5 187.5 25.79
26.5 188.5 25.57
26.5 189.5 25.49
26.5 190.5 25.47
26.5 191.5 25.51
26.5 192.5 25.53
26.5 193.5 25.53
26.5 194.5 25.49
26.5 195.5 25.42
26.5 196.5 25.31
26.5 197.5 25.22
26.5 198.5 25.13
26.5 199.5 25.02
26.5 200.5 25
26.5 201.5 24.97
26.5 202.5 24.97
26.5 203.5 24.99
26.5 204.5 25.1
26.5 205.5 25.04
26.5 206.5 24.96
26.5 207.5 24.86
26.5 208.5 24.85
26.5 209.5 24.8
25.5 180.5 26.75
25.5 181.5 26.84
25.5 182.5 26.92
25.5 183.5 26.95
25.5 184.5 26.8
25.5 185.5 26.68
25.5 186.5 26.52
25.5 187.5 26.32
25.5 188.5 26.14
25.5 189.5 26.07
25.5 190.5 26.04
25.5 191.5 26.04
25.5 192.5 25.99
25.5 193.5 25.94
25.5 194.5 25.88
25.5 195.5 25.78
25.5 196.5 25.66
25.5 197.5 25.55
25.5 198.5 25.44
25.5 199.5 25.32
25.5 200.5 25.34
25.5 201.5 25.31
25.5 202.5 25.29
25.5 203.5 25.31
25.5 204.5 25.46
25.5 205.5 25.38
25.5 206.5 25.25
25.5 207.5 25.12
25.5 208.5 25.08
25.5 209.5 25.02
24.5 180.5 27.08
24.5 181.5 27.17
24.5 182.5 27.23
24.5 183.5 27.26
24.5 184.5 27.15
24.5 185.5 27.05
24.5 186.5 26.91
24.5 187.5 26.74
24.5 188.5 26.59
24.5 189.5 26.51
24.5 190.5 26.46
24.5 191.5 26.41
24.5 192.5 26.32
24.5 193.5 26.23
24.5 194.5 26.14
24.5 195.5 26.03
24.5 196.5 25.94
24.5 197.5 25.84
24.5 198.5 25.73
24.5 199.5 25.61
24.5 200.5 25.65
24.5 201.5 25.62
24.5 202.5 25.58
24.5 203.5 25.57
24.5 204.5 25.7
24.5 205.5 25.59
24.5 206.5 25.43
24.5 207.5 25.27
24.5 208.5 25.21
24.5 209.5 25.14
23.5 180.5 27.28
23.5 181.5 27.39
23.5 182.5 27.46
23.5 183.5 27.5
23.5 184.5 27.35
23.5 185.5 27.22
23.5 186.5 27.05
23.5 187.5 26.9
23.5 188.5 26.79
23.5 189.5 26.75
23.5 190.5 26.7
23.5 191.5 26.62
23.5 192.5 26.57
23.5 193.5 26.43
23.5 194.5 26.3
23.5 195.5 26.2
23.5 196.5 26.25
23.5 197.5 26.16
23.5 198.5 26.05
23.5 199.5 25.95
23.5 200.5 25.98
23.5 201.5 25.94
23.5 202.5 25.88
23.5 203.5 25.81
23.5 204.5 25.82
23.5 205.5 25.67
23.5 206.5 25.5
23.5 207.5 25.34
23.5 208.5 25.3
23.5 209.5 25.23
22.5 180.5 27.4
22.5 181.5 27.5
22.5 182.5 27.59
22.5 183.5 27.63
22.5 184.5 27.47
22.5 185.5 27.31
22.5 186.5 27.11
22.5 187.5 26.94
22.5 188.5 26.86
22.5 189.5 26.85
22.5 190.5 26.82
22.5 191.5 26.77
22.5 192.5 26.77
22.5 193.5 26.65
22.5 194.5 26.53
22.5 195.5 26.46
22.5 196.5 26.6
22.5 197.5 26.55
22.5 198.5 26.47
22.5 199.5 26.36
22.5 200.5 26.33
22.5 201.5 26.25
22.5 202.5 26.13
22.5 203.5 26.01
22.5 204.5 25.93
22.5 205.5 25.78
22.5 206.5 25.62
22.5 207.5 25.49
22.5 208.5 25.48
22.5 209.5 25.4
21.5 180.5 27.52
21.5 181.5 27.63
21.5 182.5 27.71
21.5 183.5 27.76
21.5 184.5 27.59
21.5 185.5 27.41
21.5 186.5 27.2
21.5 187.5 27.03
21.5 188.5 26.99
21.5 189.5 27
21.5 190.5 27.01
21.5 191.5 27.02
21.5 192.5 27.09
21.5 193.5 26.99
21.5 194.5 26.88
21.5 195.5 26.82
21.5 196.5 26.95
21.5 197.5 26.91
21.5 198.5 26.84
21.5 199.5 26.73
21.5 200.5 26.66
21.5 201.5 26.53
21.5 202.5 26.38
21.5 203.5 26.23
21.5 204.5 26.1
21.5 205.5 25.95
21.5 206.5 25.8
21.5 207.5 25.69
21.5 208.5 25.68
21.5 209.5 25.6
20.5 180.5 27.68
20.5 181.5 27.77
20.5 182.5 27.84
20.5 183.5 27.88
20.5 184.5 27.74
20.5 185.5 27.57
20.5 186.5 27.37
20.5 187.5 27.21
20.5 188.5 27.23
20.5 189.5 27.28
20.5 190.5 27.32
20.5 191.5 27.37
20.5 192.5 27.43
20.5 193.5 27.35
20.5 194.5 27.23
20.5 195.5 27.15
20.5 196.5 27.2
20.5 197.5 27.14
20.5 198.5 27.06
20.5 199.5 26.96
20.5 200.5 26.88
20.5 201.5 26.75
20.5 202.5 26.6
20.5 203.5 26.44
20.5 204.5 26.31
20.5 205.5 26.16
20.5 206.5 26.01
20.5 207.5 25.91
20.5 208.5 25.87
20.5 209.5 25.76
19.5 180.5 27.88
19.5 181.5 27.94
19.5 182.5 27.98
19.5 183.5 28.01
19.5 184.5 27.95
19.5 185.5 27.82
19.5 186.5 27.66
19.5 187.5 27.54
19.5 188.5 27.55
19.5 189.5 27.6
19.5 190.5 27.66
19.5 191.5 27.69
19.5 192.5 27.67
19.5 193.5 27.59
19.5 194.5 27.47
19.5 195.5 27.36
19.5 196.5 27.28
19.5 197.5 27.18
19.5 198.5 27.07
19.5 199.5 26.97
19.5 200.5 26.94
19.5 201.5 26.85
19.5 202.5 26.71
19.5 203.5 26.58
19.5 204.5 26.48
19.5 205.5 26.34
19.5 206.5 26.2
19.5 207.5 26.07
19.5 208.5 25.94
19.5 209.5 25.82
18.5 180.5 28.06
18.5 181.5 28.08
18.5 182.5 28.09
18.5 183.5 28.09
18.5 184.5 28.07
18.5 185.5 27.98
18.5 186.5 27.88
18.5 187.5 27.8
18.5 188.5 27.79
18.5 189.5 27.82
18.5 190.5 27.84
18.5 191.5 27.82
18.5 192.5 27.7
18.5 193.5 27.59
18.5 194.5 27.47
18.5 195.5 27.34
18.5 196.5 27.21
18.5 197.5 27.08
18.5 198.5 26.95
18.5 199.5 26.85
18.5 200.5 26.82
18.5 201.5 26.76
18.5 202.5 26.66
18.5 203.5 26.58
18.5 204.5 26.52
18.5 205.5 26.38
18.5 206.5 26.25
18.5 207.5 26.11
18.5 208.5 25.93
18.5 209.5 25.79
17.5 180.5 28.26
17.5 181.5 28.23
17.5 182.5 28.21
17.5 183.5 28.18
17.5 184.5 28.14
17.5 185.5 28.09
17.5 186.5 28.04
17.5 187.5 27.99
17.5 188.5 27.95
17.5 189.5 27.93
17.5 190.5 27.9
17.5 191.5 27.83
17.5 192.5 27.64
17.5 193.5 27.51
17.5 194.5 27.39
17.5 195.5 27.26
17.5 196.5 27.11
17.5 197.5 26.97
17.5 198.5 26.84
17.5 199.5 26.73
17.5 200.5 26.67
17.5 201.5 26.62
17.5 202.5 26.56
17.5 203.5 26.53
17.5 204.5 26.5
17.5 205.5 26.38
17.5 206.5 26.26
17.5 207.5 26.11
17.5 208.5 25.93
17.5 209.5 25.79
16.5 180.5 28.42
16.5 181.5 28.37
16.5 182.5 28.32
16.5 183.5 28.27
16.5 184.5 28.2
16.5 185.5 28.17
16.5 186.5 28.15
16.5 187.5 28.12
16.5 188.5 28.04
16.5 189.5 27.97
16.5 190.5 27.9
16.5 191.5 27.79
16.5 192.5 27.58
16.5 193.5 27.44
16.5 194.5 27.31
16.5 195.5 27.2
16.5 196.5 27.05
16.5 197.5 26.92
16.5 198.5 26.8
16.5 199.5 26.69
16.5 200.5 26.63
16.5 201.5 26.59
16.5 202.5 26.56
16.5 203.5 26.54
16.5 204.5 26.54
16.5 205.5 26.44
16.5 206.5 26.33
16.5 207.5 26.18
16.5 208.5 26.05
16.5 209.5 25.93
15.5 180.5 28.52
15.5 181.5 28.47
15.5 182.5 28.42
15.5 183.5 28.37
15.5 184.5 28.3
15.5 185.5 28.27
15.5 186.5 28.25
15.5 187.5 28.19
15.5 188.5 28.06
15.5 189.5 27.96
15.5 190.5 27.86
15.5 191.5 27.76
15.5 192.5 27.57
15.5 193.5 27.44
15.5 194.5 27.3
15.5 195.5 27.19
15.5 196.5 27.09
15.5 197.5 26.97
15.5 198.5 26.86
15.5 199.5 26.75
15.5 200.5 26.75
15.5 201.5 26.72
15.5 202.5 26.72
15.5 203.5 26.74
15.5 204.5 26.74
15.5 205.5 26.66
15.5 206.5 26.55
15.5 207.5 26.41
15.5 208.5 26.31
15.5 209.5 26.22
14.5 180.5 28.62
14.5 181.5 28.58
14.5 182.5 28.54
14.5 183.5 28.48
14.5 184.5 28.4
14.5 185.5 28.36
14.5 186.5 28.32
14.5 187.5 28.25
14.5 188.5 28.12
14.5 189.5 28.02
14.5 190.5 27.92
14.5 191.5 27.83
14.5 192.5 27.67
14.5 193.5 27.53
14.5 194.5 27.39
14.5 195.5 27.28
14.5 196.5 27.17
14.5 197.5 27.06
14.5 198.5 26.95
14.5 199.5 26.85
14.5 200.5 26.87
14.5 201.5 26.88
14.5 202.5 26.9
14.5 203.5 26.95
14.5 204.5 26.99
14.5 205.5 26.91
14.5 206.5 26.81
14.5 207.5 26.69
14.5 208.5 26.59
14.5 209.5 26.56
13.5 180.5 28.75
13.5 181.5 28.71
13.5 182.5 28.67
13.5 183.5 28.62
13.5 184.5 28.53
13.5 185.5 28.46
13.5 186.5 28.39
13.5 187.5 28.31
13.5 188.5 28.2
13.5 189.5 28.12
13.5 190.5 28.04
13.5 191.5 27.96
13.5 192.5 27.83
13.5 193.5 27.69
13.5 194.5 27.55
13.5 195.5 27.45
13.5 196.5 27.33
13.5 197.5 27.22
13.5 198.5 27.1
13.5 199.5 26.99
13.5 200.5 26.99
13.5 201.5 27.01
13.5 202.5 27.06
13.5 203.5 27.11
13.5 204.5 27.22
13.5 205.5 27.15
13.5 206.5 27.06
13.5 207.5 26.97
13.5 208.5 26.89
13.5 209.5 26.9
12.5 180.5 28.88
12.5 181.5 28.84
12.5 182.5 28.81
12.5 183.5 28.75
12.5 184.5 28.65
12.5 185.5 28.56
12.5 186.5 28.47
12.5 187.5 28.37
12.5 188.5 28.29
12.5 189.5 28.23
12.5 190.5 28.16
12.5 191.5 28.1
12.5 192.5 28.02
12.5 193.5 27.89
12.5 194.5 27.77
12.5 195.5 27.68
12.5 196.5 27.55
12.5 197.5 27.43
12.5 198.5 27.3
12.5 199.5 27.18
12.5 200.5 27.12
12.5 201.5 27.14
12.5 202.5 27.19
12.5 203.5 27.24
12.5 204.5 27.44
12.5 205.5 27.39
12.5 206.5 27.33
12.5 207.5 27.27
12.5 208.5 27.19
12.5 209.5 27.21
11.5 180.5 28.96
11.5 181.5 28.95
11.5 182.5 28.94
11.5 183.5 28.91
11.5 184.5 28.74
11.5 185.5 28.66
11.5 186.5 28.57
11.5 187.5 28.46
11.5 188.5 28.42
11.5 189.5 28.37
11.5 190.5 28.31
11.5 191.5 28.27
11.5 192.5 28.25
11.5 193.5 28.14
11.5 194.5 28.03
11.5 195.5 27.97
11.5 196.5 27.87
11.5 197.5 27.74
11.5 198.5 27.6
11.5 199.5 27.46
11.5 200.5 27.3
11.5 201.5 27.28
11.5 202.5 27.3
11.5 203.5 27.32
11.5 204.5 27.55
11.5 205.5 27.55
11.5 206.5 27.56
11.5 207.5 27.57
11.5 208.5 27.57
11.5 209.5 27.58
10.5 180.5 29.09
10.5 181.5 29.08
10.5 182.5 29.08
10.5 183.5 29.06
10.5 184.5 28.9
10.5 185.5 28.83
10.5 186.5 28.75
10.5 187.5 28.65
10.5 188.5 28.65
10.5 189.5 28.59
10.5 190.5 28.53
10.5 191.5 28.49
10.5 192.5 28.53
10.5 193.5 28.44
10.5 194.5 28.36
10.5 195.5 28.33
10.5 196.5 28.3
10.5 197.5 28.19
10.5 198.5 28.06
10.5 199.5 27.93
10.5 200.5 27.73
10.5 201.5 27.69
10.5 202.5 27.68
10.5 203.5 27.68
10.5 204.5 27.85
10.5 205.5 27.88
10.5 206.5 27.91
10.5 207.5 27.94
10.5 208.5 27.97
10.5 209.5 27.96
