39.5 180.5 10.7
39.5 181.5 10.67
39.5 182.5 10.58
39.5 183.5 10.62
39.5 184.5 11.18
39.5 185.5 11.09
39.5 186.5 10.73
39.5 187.5 10.46
39.5 188.5 10.73
39.5 189.5 10.66
39.5 190.5 10.5
39.5 191.5 10.39
39.5 192.5 10.54
39.5 193.5 10.65
39.5 194.5 10.76
39.5 195.5 10.74
39.5 196.5 10.54
39.5 197.5 10.34
39.5 198.5 10.23
39.5 199.5 10.2
39.5 200.5 10.26
39.5 201.5 10.27
39.5 202.5 10.26
39.5 203.5 10.3
39.5 204.5 10.52
39.5 205.5 10.49
39.5 206.5 10.41
39.5 207.5 10.44
39.5 208.5 10.83
39.5 209.5 11.09
38.5 180.5 11.73
38.5 181.5 11.71
38.5 182.5 11.7
38.5 183.5 11.79
38.5 184.5 12.24
38.5 185.5 12.13
38.5 186.5 11.74
38.5 187.5 11.47
38.5 188.5 11.71
38.5 189.5 11.62
38.5 190.5 11.4
38.5 191.5 11.22
38.5 192.5 11.31
38.5 193.5 11.4
38.5 194.5 11.5
38.5 195.5 11.47
38.5 196.5 11.24
38.5 197.5 11.05
38.5 198.5 10.95
38.5 199.5 10.94
38.5 200.5 11.07
38.5 201.5 11.07
38.5 202.5 11.03
38.5 203.5 11.04
38.5 204.5 11.24
38.5 205.5 11.24
38.5 206.5 11.19
38.5 207.5 11.22
38.5 208.5 11.55
38.5 209.5 11.78
37.5 180.5 12.68
37.5 181.5 12.63
37.5 182.5 12.66
37.5 183.5 12.78
37.5 184.5 13.05
37.5 185.5 12.9
37.5 186.5 12.52
37.5 187.5 12.26
37.5 188.5 12.4
37.5 189.5 12.26
37.5 190.5 11.96
37.5 191.5 11.7
37.5 192.5 11.76
37.5 193.5 11.83
37.5 194.5 11.93
37.5 195.5 11.92
37.5 196.5 11.77
37.5 197.5 11.63
37.5 198.5 11.58
37.5 199.5 11.61
37.5 200.5 11.77
37.5 201.5 11.77
37.5 202.5 11.71
37.5 203.5 11.7
37.5 204.5 11.89
37.5 205.5 11.92
37.5 206.5 11.91
37.5 207.5 11.98
37.5 208.5 12.27
37.5 209.5 12.48
36.5 180.5 13.52
36.5 181.5 13.39
36.5 182.5 13.44
36.5 183.5 13.54
36.5 184.5 13.61
36.5 185.5 13.41
36.5 186.5 13.06
36.5 187.5 12.81
36.5 188.5 12.86
36.5 189.5 12.65
36.5 190.5 12.28
36.5 191.5 11.95
36.5 192.5 12
36.5 193.5 12.07
36.5 194.5 12.18
36.5 195.5 12.21
36.5 196.5 12.2
36.5 197.5 12.12
36.5 198.5 12.14
36.5 199.5 12.21
36.5 200.5 12.4
36.5 201.5 12.4
36.5 202.5 12.35
36.5 203.5 12.35
36.5 204.5 12.54
36.5 205.5 12.6
36.5 206.5 12.63
36.5 207.5 12.71
36.5 208.5 12.99
36.5 209.5 13.21
35.5 180.5 14.1
35.5 181.5 13.92
35.5 182.5 14
35.5 183.5 14.09
35.5 184.5 13.97
35.5 185.5 13.74
35.5 186.5 13.44
35.5 187.5 13.23
35.5 188.5 13.22
35.5 189.5 13
35.5 190.5 12.62
35.5 191.5 12.3
35.5 192.5 12.33
35.5 193.5 12.39
35.5 194.5 12.52
35.5 195.5 12.6
35.5 196.5 12.66
35.5 197.5 12.65
35.5 198.5 12.71
35.5 199.5 12.82
35.5 200.5 13.04
35.5 201.5 13.1
35.5 202.5 13.11
35.5 203.5 13.18
35.5 204.5 13.44
35.5 205.5 13.48
35.5 206.5 13.48
35.5 207.5 13.54
35.5 208.5 13.78
35.5 209.5 13.97
34.5 180.5 14.64
34.5 181.5 14.49
34.5 182.5 14.57
34.5 183.5 14.6
34.5 184.5 14.32
34.5 185.5 14.07
34.5 186.5 13.8
34.5 187.5 13.63
34.5 188.5 13.62
34.5 189.5 13.42
34.5 190.5 13.09
34.5 191.5 12.85
34.5 192.5 12.89
34.5 193.5 12.99
34.5 194.5 13.15
34.5 195.5 13.26
34.5 196.5 13.29
34.5 197.5 13.29
34.5 198.5 13.35
34.5 199.5 13.47
34.5 200.5 13.74
34.5 201.5 13.83
34.5 202.5 13.88
34.5 203.5 14
34.5 204.5 14.34
34.5 205.5 14.41
34.5 206.5 14.41
34.5 207.5 14.46
34.5 208.5 14.68
34.5 209.5 14.87
33.5 180.5 15.22
33.5 181.5 15.16
33.5 182.5 15.26
33.5 183.5 15.27
33.5 184.5 14.9
33.5 185.5 14.64
33.5 186.5 14.41
33.5 187.5 14.25
33.5 188.5 14.16
33.5 189.5 13.99
33.5 190.5 13.75
33.5 191.5 13.6
33.5 192.5 13.66
33.5 193.5 13.81
33.5 194.5 13.99
33.5 195.5 14.12
33.5 196.5 14.09
33.5 197.5 14.09
33.5 198.5 14.14
33.5 199.5 14.21
33.5 200.5 14.46
33.5 201.5 14.54
33.5 202.5 14.61
33.5 203.5 14.76
33.5 204.5 15.15
33.5 205.5 15.24
33.5 206.5 15.25
33.5 207.5 15.32
33.5 208.5 15.51
33.5 209.5 15.68
32.5 180.5 15.88
32.5 181.5 15.93
32.5 182.5 16.08
32.5 183.5 16.11
32.5 184.5 15.73
32.5 185.5 15.5
32.5 186.5 15.31
32.5 187.5 15.14
32.5 188.5 14.93
32.5 189.5 14.78
32.5 190.5 14.62
32.5 191.5 14.54
32.5 192.5 14.58
32.5 193.5 14.72
32.5 194.5 14.91
32.5 195.5 15.06
32.5 196.5 15.02
32.5 197.5 15.02
32.5 198.5 15.03
32.5 199.5 15.03
32.5 200.5 15.19
32.5 201.5 15.23
32.5 202.5 15.29
32.5 203.5 15.46
32.5 204.5 15.85
32.5 205.5 15.95
32.5 206.5 15.98
32.5 207.5 16.06
32.5 208.5 16.25
32.5 209.5 16.38
31.5 180.5 16.84
31.5 181.5 16.95
31.5 182.5 17.13
31.5 183.5 17.18
31.5 184.5 16.82
31.5 185.5 16.6
31.5 186.5 16.42
31.5 187.5 16.24
31.5 188.5 16
31.5 189.5 15.89
31.5 190.5 15.76
31.5 191.5 15.68
31.5 192.5 15.7
31.5 193.5 15.73
31.5 194.5 15.81
31.5 195.5 15.93
31.5 196.5 15.96
31.5 197.5 15.99
31.5 198.5 15.99
31.5 199.5 15.99
31.5 200.5 16.07
31.5 201.5 16.07
31.5 202.5 16.09
31.5 203.5 16.22
31.5 204.5 16.49
31.5 205.5 16.63
31.5 206.5 16.7
31.5 207.5 16.82
31.5 208.5 17.01
31.5 209.5 17.11
30.5 180.5 17.68
30.5 181.5 17.76
30.5 182.5 17.9
30.5 183.5 17.95
30.5 184.5 17.67
30.5 185.5 17.45
30.5 186.5 17.27
30.5 187.5 17.11
30.5 188.5 17
30.5 189.5 16.95
30.5 190.5 16.85
30.5 191.5 16.77
30.5 192.5 16.83
30.5 193.5 16.75
30.5 194.5 16.74
30.5 195.5 16.82
30.5 196.5 16.91
30.5 197.5 16.95
30.5 198.5 16.96
30.5 199.5 16.97
30.5 200.5 16.98
30.5 201.5 16.96
30.5 202.5 16.92
30.5 203.5 16.96
30.5 204.5 17.15
30.5 205.5 17.29
30.5 206.5 17.42
30.5 207.5 17.59
30.5 208.5 17.8
30.5 209.5 17.88
29.5 180.5 18.58
29.5 181.5 18.58
29.5 182.5 18.63
29.5 183.5 18.62
29.5 184.5 18.33
29.5 185.5 18.09
29.5 186.5 17.9
29.5 187.5 17.78
29.5 188.5 17.87
29.5 189.5 17.89
29.5 190.5 17.84
29.5 191.5 17.78
29.5 192.5 17.93
29.5 193.5 17.79
29.5 194.5 17.7
29.5 195.5 17.7
29.5 196.5 17.82
29.5 197.5 17.86
29.5 198.5 17.88
29.5 199.5 17.93
29.5 200.5 17.97
29.5 201.5 17.95
29.5 202.5 17.86
29.5 203.5 17.81
29.5 204.5 17.9
29.5 205.5 18.03
29.5 206.5 18.18
29.5 207.5 18.39
29.5 208.5 18.62
29.5 209.5 18.69
28.5 180.5 19.58
28.5 181.5 19.51
28.5 182.5 19.47
28.5 183.5 19.36
28.5 184.5 18.99
28.5 185.5 18.71
28.5 186.5 18.52
28.5 187.5 18.42
28.5 188.5 18.64
28.5 189.5 18.7
28.5 190.5 18.7
28.5 191.5 18.68
28.5 192.5 18.94
28.5 193.5 18.76
28.5 194.5 18.6
28.5 195.5 18.54
28.5 196.5 18.69
28.5 197.5 18.72
28.5 198.5 18.74
28.5 199.5 18.85
28.5 200.5 18.98
28.5 201.5 18.97
28.5 202.5 18.85
28.5 203.5 18.72
28.5 204.5 18.76
28.5 205.5 18.86
28.5 206.5 18.99
28.5 207.5 19.2
28.5 208.5 19.45
28.5 209.5 19.51
27.5 180.5 20.61
27.5 181.5 20.54
27.5 182.5 20.47
27.5 183.5 20.28
27.5 184.5 19.87
27.5 185.5 19.61
27.5 186.5 19.46
27.5 187.5 19.4
27.5 188.5 19.47
27.5 189.5 19.49
27.5 190.5 19.46
27.5 191.5 19.44
27.5 192.5 19.78
27.5 193.5 19.6
27.5 194.5 19.38
27.5 195.5 19.3
27.5 196.5 19.59
27.5 197.5 19.62
27.5 198.5 19.62
27.5 199.5 19.75
27.5 200.5 20.02
27.5 201.5 20.02
27.5 202.5 19.87
27.5 203.5 19.71
27.5 204.5 19.79
27.5 205.5 19.79
27.5 206.5 19.83
27.5 207.5 19.99
27.5 208.5 20.29
27.5 209.5 20.36
26.5 180.5 21.57
26.5 181.5 21.53
26.5 182.5 21.45
26.5 183.5 21.27
26.5 184.5 20.92
26.5 185.5 20.73
26.5 186.5 20.63
26.5 187.5 20.56
26.5 188.5 20.41
26.5 189.5 20.33
26.5 190.5 20.24
26.5 191.5 20.15
26.5 192.5 20.33
26.5 193.5 20.19
26.5 194.5 20.06
26.5 195.5 20.08
26.5 196.5 20.51
26.5 197.5 20.57
26.5 198.5 20.53
26.5 199.5 20.61
26.5 200.5 20.92
26.5 201.5 20.91
26.5 202.5 20.75
26.5 203.5 20.58
26.5 204.5 20.71
26.5 205.5 20.65
26.5 206.5 20.64
26.5 207.5 20.74
26.5 208.5 21.06
26.5 209.5 21.1
25.5 180.5 22.43
25.5 181.5 22.42
25.5 182.5 22.35
25.5 183.5 22.21
25.5 184.5 21.97
25.5 185.5 21.87
25.5 186.5 21.84
25.5 187.5 21.79
25.5 188.5 21.47
25.5 189.5 21.29
25.5 190.5 21.12
25.5 191.5 20.93
25.5 192.5 20.93
25.5 193.5 20.83
25.5 194.5 20.79
25.5 195.5 20.92
25.5 196.5 21.43
25.5 197.5 21.5
25.5 198.5 21.44
25.5 199.5 21.46
25.5 200.5 21.73
25.5 201.5 21.7
25.5 202.5 21.55
25.5 203.5 21.4
25.5 204.5 21.58
25.5 205.5 21.5
25.5 206.5 21.46
25.5 207.5 21.51
25.5 208.5 21.79
25.5 209.5 21.8
24.5 180.5 23.09
24.5 181.5 23.08
24.5 182.5 23.02
24.5 183.5 22.92
24.5 184.5 22.75
24.5 185.5 22.74
24.5 186.5 22.78
24.5 187.5 22.78
24.5 188.5 22.44
24.5 189.5 22.21
24.5 190.5 21.97
24.5 191.5 21.71
24.5 192.5 21.62
24.5 193.5 21.57
24.5 194.5 21.62
24.5 195.5 21.81
24.5 196.5 22.28
24.5 197.5 22.34
24.5 198.5 22.25
24.5 199.5 22.19
24.5 200.5 22.4
24.5 201.5 22.35
24.5 202.5 22.24
24.5 203.5 22.16
24.5 204.5 22.39
24.5 205.5 22.34
24.5 206.5 22.28
24.5 207.5 22.27
24.5 208.5 22.46
24.5 209.5 22.43
23.5 180.5 23.39
23.5 181.5 23.38
23.5 182.5 23.36
23.5 183.5 23.32
23.5 184.5 23.15
23.5 185.5 23.19
23.5 186.5 23.27
23.5 187.5 23.32
23.5 188.5 23.16
23.5 189.5 22.93
23.5 190.5 22.65
23.5 191.5 22.38
23.5 192.5 22.39
23.5 193.5 22.42
23.5 194.5 22.51
23.5 195.5 22.69
23.5 196.5 23.04
23.5 197.5 23.09
23.5 198.5 23.02
23.5 199.5 22.94
23.5 200.5 23.03
23.5 201.5 22.98
23.5 202.5 22.92
23.5 203.5 22.94
23.5 204.5 23.12
23.5 205.5 23.1
23.5 206.5 23.01
23.5 207.5 22.92
23.5 208.5 23
23.5 209.5 22.97
22.5 180.5 23.75
22.5 181.5 23.72
22.5 182.5 23.69
22.5 183.5 23.67
22.5 184.5 23.52
22.5 185.5 23.56
22.5 186.5 23.63
22.5 187.5 23.72
22.5 188.5 23.65
22.5 189.5 23.49
22.5 190.5 23.27
22.5 191.5 23.06
22.5 192.5 23.12
22.5 193.5 23.17
22.5 194.5 23.25
22.5 195.5 23.37
22.5 196.5 23.56
22.5 197.5 23.57
22.5 198.5 23.52
22.5 199.5 23.43
22.5 200.5 23.47
22.5 201.5 23.44
22.5 202.5 23.42
22.5 203.5 23.48
22.5 204.5 23.69
22.5 205.5 23.68
22.5 206.5 23.57
22.5 207.5 23.44
22.5 208.5 23.4
22.5 209.5 23.32
21.5 180.5 24.18
21.5 181.5 24.14
21.5 182.5 24.12
21.5 183.5 24.12
21.5 184.5 24.06
21.5 185.5 24.09
21.5 186.5 24.14
21.5 187.5 24.2
21.5 188.5 24.16
21.5 189.5 24.06
21.5 190.5 23.9
21.5 191.5 23.75
21.5 192.5 23.77
21.5 193.5 23.81
21.5 194.5 23.86
21.5 195.5 23.92
21.5 196.5 24
21.5 197.5 23.99
21.5 198.5 23.96
21.5 199.5 23.9
21.5 200.5 23.93
21.5 201.5 23.91
21.5 202.5 23.92
21.5 203.5 23.97
21.5 204.5 24.12
21.5 205.5 24.09
21.5 206.5 23.97
21.5 207.5 23.82
21.5 208.5 23.69
21.5 209.5 23.58
20.5 180.5 24.69
20.5 181.5 24.67
20.5 182.5 24.67
20.5 183.5 24.71
20.5 184.5 24.74
20.5 185.5 24.76
20.5 186.5 24.78
20.5 187.5 24.8
20.5 188.5 24.72
20.5 189.5 24.63
20.5 190.5 24.51
20.5 191.5 24.39
20.5 192.5 24.34
20.5 193.5 24.34
20.5 194.5 24.35
20.5 195.5 24.36
20.5 196.5 24.4
20.5 197.5 24.39
20.5 198.5 24.39
20.5 199.5 24.36
20.5 200.5 24.39
20.5 201.5 24.38
20.5 202.5 24.39
20.5 203.5 24.4
20.5 204.5 24.44
20.5 205.5 24.37
20.5 206.5 24.25
20.5 207.5 24.08
20.5 208.5 23.92
20.5 209.5 23.8
19.5 180.5 25.25
19.5 181.5 25.26
19.5 182.5 25.29
19.5 183.5 25.32
19.5 184.5 25.33
19.5 185.5 25.34
19.5 186.5 25.34
19.5 187.5 25.33
19.5 188.5 25.22
19.5 189.5 25.13
19.5 190.5 25.02
19.5 191.5 24.91
19.5 192.5 24.84
19.5 193.5 24.79
19.5 194.5 24.76
19.5 195.5 24.73
19.5 196.5 24.78
19.5 197.5 24.78
19.5 198.5 24.79
19.5 199.5 24.79
19.5 200.5 24.78
19.5 201.5 24.76
19.5 202.5 24.76
19.5 203.5 24.73
19.5 204.5 24.66
19.5 205.5 24.56
19.5 206.5 24.42
19.5 207.5 24.25
19.5 208.5 24.09
19.5 209.5 23.99
18.5 180.5 25.73
18.5 181.5 25.74
18.5 182.5 25.74
18.5 183.5 25.75
18.5 184.5 25.72
18.5 185.5 25.69
18.5 186.5 25.66
18.5 187.5 25.61
18.5 188.5 25.5
18.5 189.5 25.39
18.5 190.5 25.29
18.5 191.5 25.19
18.5 192.5 25.13
18.5 193.5 25.09
18.5 194.5 25.05
18.5 195.5 25.03
18.5 196.5 25.05
18.5 197.5 25.05
18.5 198.5 25.06
18.5 199.5 25.04
18.5 200.5 24.96
18.5 201.5 24.93
18.5 202.5 24.9
18.5 203.5 24.85
18.5 204.5 24.74
18.5 205.5 24.64
18.5 206.5 24.52
18.5 207.5 24.39
18.5 208.5 24.27
18.5 209.5 24.2
17.5 180.5 26.01
17.5 181.5 26.01
17.5 182.5 26
17.5 183.5 25.97
17.5 184.5 25.89
17.5 185.5 25.83
17.5 186.5 25.77
17.5 187.5 25.7
17.5 188.5 25.62
17.5 189.5 25.52
17.5 190.5 25.43
17.5 191.5 25.35
17.5 192.5 25.31
17.5 193.5 25.28
17.5 194.5 25.26
17.5 195.5 25.25
17.5 196.5 25.24
17.5 197.5 25.22
17.5 198.5 25.19
17.5 199.5 25.14
17.5 200.5 25.02
17.5 201.5 24.96
17.5 202.5 24.91
17.5 203.5 24.86
17.5 204.5 24.76
17.5 205.5 24.7
17.5 206.5 24.63
17.5 207.5 24.56
17.5 208.5 24.48
17.5 209.5 24.43
16.5 180.5 26.14
16.5 181.5 26.13
16.5 182.5 26.1
16.5 183.5 26.04
16.5 184.5 25.93
16.5 185.5 25.86
16.5 186.5 25.79
16.5 187.5 25.73
16.5 188.5 25.68
16.5 189.5 25.61
16.5 190.5 25.54
16.5 191.5 25.49
16.5 192.5 25.47
16.5 193.5 25.45
16.5 194.5 25.43
16.5 195.5 25.41
16.5 196.5 25.36
16.5 197.5 25.31
16.5 198.5 25.25
16.5 199.5 25.16
16.5 200.5 25.04
16.5 201.5 24.98
16.5 202.5 24.94
16.5 203.5 24.91
16.5 204.5 24.84
16.5 205.5 24.83
16.5 206.5 24.81
16.5 207.5 24.78
16.5 208.5 24.73
16.5 209.5 24.7
15.5 180.5 26.19
15.5 181.5 26.17
15.5 182.5 26.11
15.5 183.5 26.03
15.5 184.5 25.92
15.5 185.5 25.89
15.5 186.5 25.85
15.5 187.5 25.83
15.5 188.5 25.79
15.5 189.5 25.74
15.5 190.5 25.69
15.5 191.5 25.67
15.5 192.5 25.67
15.5 193.5 25.65
15.5 194.5 25.62
15.5 195.5 25.56
15.5 196.5 25.45
15.5 197.5 25.37
15.5 198.5 25.3
15.5 199.5 25.2
15.5 200.5 25.1
15.5 201.5 25.05
15.5 202.5 25.04
15.5 203.5 25.06
15.5 204.5 25.08
15.5 205.5 25.12
15.5 206.5 25.12
15.5 207.5 25.1
15.5 208.5 25.05
15.5 209.5 25.02
14.5 180.5 26.26
14.5 181.5 26.25
14.5 182.5 26.19
14.5 183.5 26.11
14.5 184.5 26.04
14.5 185.5 26.02
14.5 186.5 26
14.5 187.5 25.99
14.5 188.5 26
14.5 189.5 25.96
14.5 190.5 25.92
14.5 191.5 25.92
14.5 192.5 25.9
14.5 193.5 25.88
14.5 194.5 25.83
14.5 195.5 25.74
14.5 196.5 25.58
14.5 197.5 25.5
14.5 198.5 25.43
14.5 199.5 25.36
14.5 200.5 25.27
14.5 201.5 25.24
14.5 202.5 25.26
14.5 203.5 25.31
14.5 204.5 25.38
14.5 205.5 25.44
14.5 206.5 25.45
14.5 207.5 25.42
14.5 208.5 25.37
14.5 209.5 25.33
13.5 180.5 26.34
13.5 181.5 26.33
13.5 182.5 26.28
13.5 183.5 26.21
13.5 184.5 26.18
13.5 185.5 26.18
13.5 186.5 26.18
13.5 187.5 26.19
13.5 188.5 26.24
13.5 189.5 26.19
13.5 190.5 26.15
13.5 191.5 26.14
13.5 192.5 26.1
13.5 193.5 26.07
13.5 194.5 26.01
13.5 195.5 25.91
13.5 196.5 25.73
13.5 197.5 25.67
13.5 198.5 25.63
13.5 199.5 25.6
13.5 200.5 25.54
13.5 201.5 25.53
13.5 202.5 25.58
13.5 203.5 25.66
13.5 204.5 25.73
13.5 205.5 25.78
13.5 206.5 25.78
13.5 207.5 25.72
13.5 208.5 25.65
13.5 209.5 25.61
12.5 180.5 26.43
12.5 181.5 26.41
12.5 182.5 26.36
12.5 183.5 26.31
12.5 184.5 26.35
12.5 185.5 26.37
12.5 186.5 26.38
12.5 187.5 26.4
12.5 188.5 26.46
12.5 189.5 26.41
12.5 190.5 26.36
12.5 191.5 26.33
12.5 192.5 26.28
12.5 193.5 26.25
12.5 194.5 26.19
12.5 195.5 26.08
12.5 196.5 25.95
12.5 197.5 25.92
12.5 198.5 25.91
12.5 199.5 25.91
12.5 200.5 25.9
12.5 201.5 25.93
12.5 202.5 26
12.5 203.5 26.1
12.5 204.5 26.11
12.5 205.5 26.14
12.5 206.5 26.1
12.5 207.5 25.99
12.5 208.5 25.9
12.5 209.5 25.86
11.5 180.5 26.51
11.5 181.5 26.46
11.5 182.5 26.42
11.5 183.5 26.41
11.5 184.5 26.54
11.5 185.5 26.59
11.5 186.5 26.62
11.5 187.5 26.63
11.5 188.5 26.64
11.5 189.5 26.59
11.5 190.5 26.54
11.5 191.5 26.53
11.5 192.5 26.51
11.5 193.5 26.48
11.5 194.5 26.44
11.5 195.5 26.36
11.5 196.5 26.3
11.5 197.5 26.3
11.5 198.5 26.31
11.5 199.5 26.31
11.5 200.5 26.36
11.5 201.5 26.4
11.5 202.5 26.48
11.5 203.5 26.58
11.5 204.5 26.52
11.5 205.5 26.51
11.5 206.5 26.43
11.5 207.5 26.29
11.5 208.5 26.16
11.5 209.5 26.1
10.5 180.5 26.66
10.5 181.5 26.61
10.5 182.5 26.58
10.5 183.5 26.58
10.5 184.5 26.78
10.5 185.5 26.82
10.5 186.5 26.85
10.5 187.5 26.85
10.5 188.5 26.85
10.5 189.5 26.81
10.5 190.5 26.77
10.5 191.5 26.77
10.5 192.5 26.83
10.5 193.5 26.84
10.5 194.5 26.83
10.5 195.5 26.79
10.5 196.5 26.76
10.5 197.5 26.77
10.5 198.5 26.76
10.5 199.5 26.75
10.5 200.5 26.81
10.5 201.5 26.83
10.5 202.5 26.91
10.5 203.5 27
10.5 204.5 26.93
10.5 205.5 26.91
10.5 206.5 26.82
10.5 207.5 26.67
10.5 208.5 26.5
10.5 209.5 26.42
