39.5 180.5 11.94
39.5 181.5 12.04
39.5 182.5 12.09
39.5 183.5 12.2
39.5 184.5 12.64
39.5 185.5 12.51
39.5 186.5 12.16
39.5 187.5 11.85
39.5 188.5 11.9
39.5 189.5 11.87
39.5 190.5 11.85
39.5 191.5 11.77
39.5 192.5 11.59
39.5 193.5 11.64
39.5 194.5 11.77
39.5 195.5 11.74
39.5 196.5 11.27
39.5 197.5 11.06
39.5 198.5 10.97
39.5 199.5 10.9
39.5 200.5 10.89
39.5 201.5 10.84
39.5 202.5 10.82
39.5 203.5 10.84
39.5 204.5 11.01
39.5 205.5 10.97
39.5 206.5 10.92
39.5 207.5 10.99
39.5 208.5 11.34
39.5 209.5 11.48
38.5 180.5 12.75
38.5 181.5 12.88
38.5 182.5 13
38.5 183.5 13.18
38.5 184.5 13.73
38.5 185.5 13.64
38.5 186.5 13.32
38.5 187.5 13.05
38.5 188.5 13.21
38.5 189.5 13.14
38.5 190.5 13.05
38.5 191.5 12.86
38.5 192.5 12.5
38.5 193.5 12.49
38.5 194.5 12.59
38.5 195.5 12.51
38.5 196.5 11.96
38.5 197.5 11.69
38.5 198.5 11.58
38.5 199.5 11.51
38.5 200.5 11.57
38.5 201.5 11.51
38.5 202.5 11.48
38.5 203.5 11.5
38.5 204.5 11.67
38.5 205.5 11.68
38.5 206.5 11.67
38.5 207.5 11.74
38.5 208.5 12
38.5 209.5 12.12
37.5 180.5 13.7
37.5 181.5 13.79
37.5 182.5 13.9
37.5 183.5 14.06
37.5 184.5 14.62
37.5 185.5 14.56
37.5 186.5 14.27
37.5 187.5 14.03
37.5 188.5 14.29
37.5 189.5 14.14
37.5 190.5 13.93
37.5 191.5 13.6
37.5 192.5 13.09
37.5 193.5 13.02
37.5 194.5 13.11
37.5 195.5 13.03
37.5 196.5 12.5
37.5 197.5 12.25
37.5 198.5 12.14
37.5 199.5 12.1
37.5 200.5 12.17
37.5 201.5 12.13
37.5 202.5 12.1
37.5 203.5 12.13
37.5 204.5 12.34
37.5 205.5 12.4
37.5 206.5 12.44
37.5 207.5 12.54
37.5 208.5 12.75
37.5 209.5 12.87
36.5 180.5 14.91
36.5 181.5 14.9
36.5 182.5 14.92
36.5 183.5 14.96
36.5 184.5 15.34
36.5 185.5 15.24
36.5 186.5 14.98
36.5 187.5 14.79
36.5 188.5 15.13
36.5 189.5 14.88
36.5 190.5 14.53
36.5 191.5 14.09
36.5 192.5 13.52
36.5 193.5 13.42
36.5 194.5 13.52
36.5 195.5 13.5
36.5 196.5 13.04
36.5 197.5 12.82
36.5 198.5 12.74
36.5 199.5 12.73
36.5 200.5 12.78
36.5 201.5 12.77
36.5 202.5 12.75
36.5 203.5 12.81
36.5 204.5 13.06
36.5 205.5 13.17
36.5 206.5 13.25
36.5 207.5 13.36
36.5 208.5 13.56
36.5 209.5 13.68
35.5 180.5 16.32
35.5 181.5 16.21
35.5 182.5 16.15
35.5 183.5 16.04
35.5 184.5 16.03
35.5 185.5 15.79
35.5 186.5 15.51
35.5 187.5 15.33
35.5 188.5 15.66
35.5 189.5 15.35
35.5 190.5 14.91
35.5 191.5 14.45
35.5 192.5 14.01
35.5 193.5 13.97
35.5 194.5 14.1
35.5 195.5 14.15
35.5 196.5 13.72
35.5 197.5 13.53
35.5 198.5 13.45
35.5 199.5 13.43
35.5 200.5 13.44
35.5 201.5 13.45
35.5 202.5 13.46
35.5 203.5 13.54
35.5 204.5 13.83
35.5 205.5 13.96
35.5 206.5 14.03
35.5 207.5 14.13
35.5 208.5 14.48
35.5 209.5 14.62
34.5 180.5 17.58
34.5 181.5 17.45
34.5 182.5 17.32
34.5 183.5 17.08
34.5 184.5 16.71
34.5 185.5 16.36
34.5 186.5 16.07
34.5 187.5 15.93
34.5 188.5 16.25
34.5 189.5 15.95
34.5 190.5 15.5
34.5 191.5 15.09
34.5 192.5 14.85
34.5 193.5 14.87
34.5 194.5 15.03
34.5 195.5 15.1
34.5 196.5 14.67
34.5 197.5 14.49
34.5 198.5 14.39
34.5 199.5 14.36
34.5 200.5 14.32
34.5 201.5 14.34
34.5 202.5 14.35
34.5 203.5 14.44
34.5 204.5 14.78
34.5 205.5 14.91
34.5 206.5 14.97
34.5 207.5 15.06
34.5 208.5 15.5
34.5 209.5 15.61
33.5 180.5 18.57
33.5 181.5 18.48
33.5 182.5 18.34
33.5 183.5 18.07
33.5 184.5 17.53
33.5 185.5 17.17
33.5 186.5 16.91
33.5 187.5 16.79
33.5 188.5 17
33.5 189.5 16.72
33.5 190.5 16.31
33.5 191.5 15.96
33.5 192.5 15.88
33.5 193.5 15.95
33.5 194.5 16.1
33.5 195.5 16.17
33.5 196.5 15.79
33.5 197.5 15.61
33.5 198.5 15.48
33.5 199.5 15.41
33.5 200.5 15.29
33.5 201.5 15.28
33.5 202.5 15.27
33.5 203.5 15.34
33.5 204.5 15.7
33.5 205.5 15.83
33.5 206.5 15.89
33.5 207.5 16
33.5 208.5 16.49
33.5 209.5 16.56
32.5 180.5 19.2
32.5 181.5 19.19
32.5 182.5 19.13
32.5 183.5 18.95
32.5 184.5 18.49
32.5 185.5 18.22
32.5 186.5 18.03
32.5 187.5 17.93
32.5 188.5 17.91
32.5 189.5 17.63
32.5 190.5 17.28
32.5 191.5 16.99
32.5 192.5 16.94
32.5 193.5 17.01
32.5 194.5 17.12
32.5 195.5 17.21
32.5 196.5 16.96
32.5 197.5 16.79
32.5 198.5 16.63
32.5 199.5 16.47
32.5 200.5 16.28
32.5 201.5 16.23
32.5 202.5 16.18
32.5 203.5 16.23
32.5 204.5 16.6
32.5 205.5 16.72
32.5 206.5 16.8
32.5 207.5 16.93
32.5 208.5 17.41
32.5 209.5 17.44
31.5 180.5 19.56
31.5 181.5 19.63
31.5 182.5 19.71
31.5 183.5 19.71
31.5 184.5 19.54
31.5 185.5 19.4
31.5 186.5 19.29
31.5 187.5 19.19
31.5 188.5 19.05
31.5 189.5 18.84
31.5 190.5 18.61
31.5 191.5 18.38
31.5 192.5 18.02
31.5 193.5 18
31.5 194.5 18.03
31.5 195.5 18.09
31.5 196.5 18.07
31.5 197.5 17.92
31.5 198.5 17.71
31.5 199.5 17.49
31.5 200.5 17.37
31.5 201.5 17.28
31.5 202.5 17.22
31.5 203.5 17.27
31.5 204.5 17.63
31.5 205.5 17.72
31.5 206.5 17.81
31.5 207.5 17.97
31.5 208.5 18.33
31.5 209.5 18.35
30.5 180.5 20.16
30.5 181.5 20.25
30.5 182.5 20.38
30.5 183.5 20.44
30.5 184.5 20.36
30.5 185.5 20.33
30.5 186.5 20.3
30.5 187.5 20.24
30.5 188.5 20.07
30.5 189.5 19.89
30.5 190.5 19.72
30.5 191.5 19.51
30.5 192.5 19.11
30.5 193.5 19.01
30.5 194.5 18.98
30.5 195.5 19.02
30.5 196.5 19.09
30.5 197.5 18.95
30.5 198.5 18.71
30.5 199.5 18.49
30.5 200.5 18.52
30.5 201.5 18.44
30.5 202.5 18.37
30.5 203.5 18.4
30.5 204.5 18.76
30.5 205.5 18.84
30.5 206.5 18.93
30.5 207.5 19.1
30.5 208.5 19.37
30.5 209.5 19.39
29.5 180.5 21.02
29.5 181.5 21.1
29.5 182.5 21.22
29.5 183.5 21.26
29.5 184.5 21.11
29.5 185.5 21.1
29.5 186.5 21.11
29.5 187.5 21.06
29.5 188.5 20.91
29.5 189.5 20.77
29.5 190.5 20.65
29.5 191.5 20.5
29.5 192.5 20.18
29.5 193.5 20.07
29.5 194.5 20.01
29.5 195.5 20.03
29.5 196.5 20.09
29.5 197.5 19.93
29.5 198.5 19.68
29.5 199.5 19.49
29.5 200.5 19.67
29.5 201.5 19.65
29.5 202.5 19.6
29.5 203.5 19.62
29.5 204.5 19.87
29.5 205.5 19.92
29.5 206.5 19.97
29.5 207.5 20.11
29.5 208.5 20.3
29.5 209.5 20.32
28.5 180.5 21.99
28.5 181.5 22.06
28.5 182.5 22.14
28.5 183.5 22.13
28.5 184.5 21.86
28.5 185.5 21.8
28.5 186.5 21.79
28.5 187.5 21.73
28.5 188.5 21.57
28.5 189.5 21.48
28.5 190.5 21.42
28.5 191.5 21.35
28.5 192.5 21.2
28.5 193.5 21.11
28.5 194.5 21.04
28.5 195.5 21.01
28.5 196.5 21.03
28.5 197.5 20.85
28.5 198.5 20.61
28.5 199.5 20.47
28.5 200.5 20.73
28.5 201.5 20.76
28.5 202.5 20.75
28.5 203.5 20.76
28.5 204.5 20.86
28.5 205.5 20.85
28.5 206.5 20.84
28.5 207.5 20.92
28.5 208.5 21.02
28.5 209.5 21.03
27.5 180.5 22.89
27.5 181.5 22.97
27.5 182.5 23.04
27.5 183.5 23
27.5 184.5 22.69
27.5 185.5 22.57
27.5 186.5 22.5
27.5 187.5 22.42
27.5 188.5 22.24
27.5 189.5 22.19
27.5 190.5 22.19
27.5 191.5 22.17
27.5 192.5 22.15
27.5 193.5 22.08
27.5 194.5 21.99
27.5 195.5 21.9
27.5 196.5 21.86
27.5 197.5 21.68
27.5 198.5 21.47
27.5 199.5 21.38
27.5 200.5 21.54
27.5 201.5 21.62
27.5 202.5 21.66
27.5 203.5 21.7
27.5 204.5 21.7
27.5 205.5 21.61
27.5 206.5 21.53
27.5 207.5 21.51
27.5 208.5 21.59
27.5 209.5 21.61
26.5 180.5 23.72
26.5 181.5 23.79
26.5 182.5 23.82
26.5 183.5 23.74
26.5 184.5 23.49
26.5 185.5 23.37
26.5 186.5 23.3
26.5 187.5 23.22
26.5 188.5 23
26.5 189.5 22.94
26.5 190.5 22.9
26.5 191.5 22.84
26.5 192.5 22.77
26.5 193.5 22.7
26.5 194.5 22.62
26.5 195.5 22.54
26.5 196.5 22.58
26.5 197.5 22.45
26.5 198.5 22.3
26.5 199.5 22.25
26.5 200.5 22.35
26.5 201.5 22.4
26.5 202.5 22.42
26.5 203.5 22.44
26.5 204.5 22.36
26.5 205.5 22.26
26.5 206.5 22.16
26.5 207.5 22.13
26.5 208.5 22.13
26.5 209.5 22.14
25.5 180.5 24.43
25.5 181.5 24.47
25.5 182.5 24.45
25.5 183.5 24.33
25.5 184.5 24.16
25.5 185.5 24.05
25.5 186.5 24.01
25.5 187.5 23.96
25.5 188.5 23.75
25.5 189.5 23.67
25.5 190.5 23.6
25.5 191.5 23.47
25.5 192.5 23.3
25.5 193.5 23.19
25.5 194.5 23.1
25.5 195.5 23.04
25.5 196.5 23.17
25.5 197.5 23.11
25.5 198.5 23.02
25.5 199.5 23
25.5 200.5 23.08
25.5 201.5 23.07
25.5 202.5 23.03
25.5 203.5 22.99
25.5 204.5 22.87
25.5 205.5 22.79
25.5 206.5 22.71
25.5 207.5 22.7
25.5 208.5 22.69
25.5 209.5 22.68
24.5 180.5 24.92
24.5 181.5 24.93
24.5 182.5 24.85
24.5 183.5 24.7
24.5 184.5 24.56
24.5 185.5 24.46
24.5 186.5 24.45
24.5 187.5 24.45
24.5 188.5 24.33
24.5 189.5 24.26
24.5 190.5 24.17
24.5 191.5 24.01
24.5 192.5 23.79
24.5 193.5 23.66
24.5 194.5 23.56
24.5 195.5 23.51
24.5 196.5 23.65
24.5 197.5 23.64
24.5 198.5 23.61
24.5 199.5 23.61
24.5 200.5 23.66
24.5 201.5 23.59
24.5 202.5 23.49
24.5 203.5 23.4
24.5 204.5 23.29
24.5 205.5 23.25
24.5 206.5 23.21
24.5 207.5 23.22
24.5 208.5 23.2
24.5 209.5 23.17
23.5 180.5 25.18
23.5 181.5 25.12
23.5 182.5 24.99
23.5 183.5 24.79
23.5 184.5 24.62
23.5 185.5 24.56
23.5 186.5 24.59
23.5 187.5 24.63
23.5 188.5 24.66
23.5 189.5 24.62
23.5 190.5 24.57
23.5 191.5 24.47
23.5 192.5 24.32
23.5 193.5 24.2
23.5 194.5 24.1
23.5 195.5 24.04
23.5 196.5 24.12
23.5 197.5 24.14
23.5 198.5 24.12
23.5 199.5 24.11
23.5 200.5 24.09
23.5 201.5 23.99
23.5 202.5 23.86
23.5 203.5 23.76
23.5 204.5 23.69
23.5 205.5 23.68
23.5 206.5 23.65
23.5 207.5 23.62
23.5 208.5 23.58
23.5 209.5 23.51
22.5 180.5 25.36
22.5 181.5 25.25
22.5 182.5 25.07
22.5 183.5 24.85
22.5 184.5 24.67
22.5 185.5 24.62
22.5 186.5 24.67
22.5 187.5 24.75
22.5 188.5 24.88
22.5 189.5 24.92
22.5 190.5 24.92
22.5 191.5 24.9
22.5 192.5 24.82
22.5 193.5 24.73
22.5 194.5 24.65
22.5 195.5 24.59
22.5 196.5 24.57
22.5 197.5 24.59
22.5 198.5 24.58
22.5 199.5 24.56
22.5 200.5 24.51
22.5 201.5 24.39
22.5 202.5 24.23
22.5 203.5 24.12
22.5 204.5 24.04
22.5 205.5 24.01
22.5 206.5 23.98
22.5 207.5 23.92
22.5 208.5 23.81
22.5 209.5 23.71
21.5 180.5 25.57
21.5 181.5 25.44
21.5 182.5 25.24
21.5 183.5 25.02
21.5 184.5 24.88
21.5 185.5 24.85
21.5 186.5 24.9
21.5 187.5 25
21.5 188.5 25.18
21.5 189.5 25.25
21.5 190.5 25.3
21.5 191.5 25.32
21.5 192.5 25.27
21.5 193.5 25.22
21.5 194.5 25.16
21.5 195.5 25.09
21.5 196.5 24.99
21.5 197.5 24.98
21.5 198.5 24.96
21.5 199.5 24.94
21.5 200.5 24.89
21.5 201.5 24.76
21.5 202.5 24.61
21.5 203.5 24.48
21.5 204.5 24.37
21.5 205.5 24.31
21.5 206.5 24.23
21.5 207.5 24.13
21.5 208.5 23.96
21.5 209.5 23.84
20.5 180.5 25.88
20.5 181.5 25.76
20.5 182.5 25.57
20.5 183.5 25.39
20.5 184.5 25.31
20.5 185.5 25.3
20.5 186.5 25.34
20.5 187.5 25.42
20.5 188.5 25.55
20.5 189.5 25.62
20.5 190.5 25.66
20.5 191.5 25.69
20.5 192.5 25.64
20.5 193.5 25.59
20.5 194.5 25.54
20.5 195.5 25.45
20.5 196.5 25.3
20.5 197.5 25.27
20.5 198.5 25.24
20.5 199.5 25.22
20.5 200.5 25.18
20.5 201.5 25.08
20.5 202.5 24.93
20.5 203.5 24.8
20.5 204.5 24.66
20.5 205.5 24.54
20.5 206.5 24.41
20.5 207.5 24.26
20.5 208.5 24.08
20.5 209.5 23.94
19.5 180.5 26.23
19.5 181.5 26.13
19.5 182.5 25.98
19.5 183.5 25.84
19.5 184.5 25.81
19.5 185.5 25.82
19.5 186.5 25.85
19.5 187.5 25.89
19.5 188.5 25.87
19.5 189.5 25.89
19.5 190.5 25.9
19.5 191.5 25.89
19.5 192.5 25.81
19.5 193.5 25.75
19.5 194.5 25.68
19.5 195.5 25.6
19.5 196.5 25.49
19.5 197.5 25.45
19.5 198.5 25.41
19.5 199.5 25.4
19.5 200.5 25.36
19.5 201.5 25.3
19.5 202.5 25.2
19.5 203.5 25.06
19.5 204.5 24.9
19.5 205.5 24.74
19.5 206.5 24.57
19.5 207.5 24.38
19.5 208.5 24.23
19.5 209.5 24.08
18.5 180.5 26.44
18.5 181.5 26.39
18.5 182.5 26.29
18.5 183.5 26.2
18.5 184.5 26.17
18.5 185.5 26.15
18.5 186.5 26.14
18.5 187.5 26.12
18.5 188.5 26.01
18.5 189.5 25.98
18.5 190.5 25.96
18.5 191.5 25.93
18.5 192.5 25.85
18.5 193.5 25.77
18.5 194.5 25.68
18.5 195.5 25.6
18.5 196.5 25.53
18.5 197.5 25.48
18.5 198.5 25.43
18.5 199.5 25.41
18.5 200.5 25.37
18.5 201.5 25.31
18.5 202.5 25.2
18.5 203.5 25.06
18.5 204.5 24.96
18.5 205.5 24.82
18.5 206.5 24.67
18.5 207.5 24.5
18.5 208.5 24.4
18.5 209.5 24.26
17.5 180.5 26.52
17.5 181.5 26.49
17.5 182.5 26.43
17.5 183.5 26.38
17.5 184.5 26.34
17.5 185.5 26.3
17.5 186.5 26.25
17.5 187.5 26.18
17.5 188.5 26.04
17.5 189.5 25.97
17.5 190.5 25.93
17.5 191.5 25.89
17.5 192.5 25.81
17.5 193.5 25.72
17.5 194.5 25.62
17.5 195.5 25.54
17.5 196.5 25.5
17.5 197.5 25.45
17.5 198.5 25.39
17.5 199.5 25.36
17.5 200.5 25.31
17.5 201.5 25.22
17.5 202.5 25.09
17.5 203.5 24.95
17.5 204.5 24.94
17.5 205.5 24.86
17.5 206.5 24.77
17.5 207.5 24.68
17.5 208.5 24.61
17.5 209.5 24.5
16.5 180.5 26.56
16.5 181.5 26.53
16.5 182.5 26.5
16.5 183.5 26.46
16.5 184.5 26.39
16.5 185.5 26.33
16.5 186.5 26.27
16.5 187.5 26.17
16.5 188.5 26.05
16.5 189.5 25.97
16.5 190.5 25.92
16.5 191.5 25.87
16.5 192.5 25.79
16.5 193.5 25.7
16.5 194.5 25.61
16.5 195.5 25.53
16.5 196.5 25.48
16.5 197.5 25.43
16.5 198.5 25.37
16.5 199.5 25.32
16.5 200.5 25.27
16.5 201.5 25.15
16.5 202.5 25
16.5 203.5 24.86
16.5 204.5 24.92
16.5 205.5 24.91
16.5 206.5 24.92
16.5 207.5 24.91
16.5 208.5 24.88
16.5 209.5 24.79
15.5 180.5 26.63
15.5 181.5 26.61
15.5 182.5 26.57
15.5 183.5 26.53
15.5 184.5 26.45
15.5 185.5 26.39
15.5 186.5 26.31
15.5 187.5 26.22
15.5 188.5 26.12
15.5 189.5 26.05
15.5 190.5 26.01
15.5 191.5 25.97
15.5 192.5 25.87
15.5 193.5 25.78
15.5 194.5 25.7
15.5 195.5 25.64
15.5 196.5 25.57
15.5 197.5 25.53
15.5 198.5 25.47
15.5 199.5 25.4
15.5 200.5 25.34
15.5 201.5 25.2
15.5 202.5 25.04
15.5 203.5 24.91
15.5 204.5 24.98
15.5 205.5 25.04
15.5 206.5 25.14
15.5 207.5 25.2
15.5 208.5 25.14
15.5 209.5 25.02
14.5 180.5 26.7
14.5 181.5 26.67
14.5 182.5 26.63
14.5 183.5 26.59
14.5 184.5 26.52
14.5 185.5 26.45
14.5 186.5 26.38
14.5 187.5 26.28
14.5 188.5 26.18
14.5 189.5 26.11
14.5 190.5 26.08
14.5 191.5 26.05
14.5 192.5 25.95
14.5 193.5 25.88
14.5 194.5 25.82
14.5 195.5 25.77
14.5 196.5 25.69
14.5 197.5 25.67
14.5 198.5 25.63
14.5 199.5 25.56
14.5 200.5 25.46
14.5 201.5 25.31
14.5 202.5 25.15
14.5 203.5 25.02
14.5 204.5 25.07
14.5 205.5 25.16
14.5 206.5 25.31
14.5 207.5 25.42
14.5 208.5 25.35
14.5 209.5 25.23
13.5 180.5 26.78
13.5 181.5 26.72
13.5 182.5 26.67
13.5 183.5 26.63
13.5 184.5 26.57
13.5 185.5 26.51
13.5 186.5 26.45
13.5 187.5 26.36
13.5 188.5 26.26
13.5 189.5 26.2
13.5 190.5 26.15
13.5 191.5 26.13
13.5 192.5 26.04
13.5 193.5 25.98
13.5 194.5 25.94
13.5 195.5 25.91
13.5 196.5 25.84
13.5 197.5 25.83
13.5 198.5 25.8
13.5 199.5 25.75
13.5 200.5 25.59
13.5 201.5 25.43
13.5 202.5 25.28
13.5 203.5 25.17
13.5 204.5 25.19
13.5 205.5 25.31
13.5 206.5 25.47
13.5 207.5 25.59
13.5 208.5 25.52
13.5 209.5 25.4
12.5 180.5 26.86
12.5 181.5 26.79
12.5 182.5 26.73
12.5 183.5 26.68
12.5 184.5 26.63
12.5 185.5 26.58
12.5 186.5 26.54
12.5 187.5 26.47
12.5 188.5 26.39
12.5 189.5 26.33
12.5 190.5 26.28
12.5 191.5 26.25
12.5 192.5 26.16
12.5 193.5 26.12
12.5 194.5 26.1
12.5 195.5 26.1
12.5 196.5 26.03
12.5 197.5 26.03
12.5 198.5 26.01
12.5 199.5 25.96
12.5 200.5 25.74
12.5 201.5 25.59
12.5 202.5 25.44
12.5 203.5 25.34
12.5 204.5 25.37
12.5 205.5 25.49
12.5 206.5 25.65
12.5 207.5 25.77
12.5 208.5 25.71
12.5 209.5 25.58
11.5 180.5 26.97
11.5 181.5 26.91
11.5 182.5 26.85
11.5 183.5 26.78
11.5 184.5 26.7
11.5 185.5 26.67
11.5 186.5 26.65
11.5 187.5 26.63
11.5 188.5 26.59
11.5 189.5 26.53
11.5 190.5 26.46
11.5 191.5 26.41
11.5 192.5 26.35
11.5 193.5 26.33
11.5 194.5 26.34
11.5 195.5 26.38
11.5 196.5 26.32
11.5 197.5 26.31
11.5 198.5 26.28
11.5 199.5 26.21
11.5 200.5 25.93
11.5 201.5 25.8
11.5 202.5 25.68
11.5 203.5 25.61
11.5 204.5 25.7
11.5 205.5 25.83
11.5 206.5 25.97
11.5 207.5 26.08
11.5 208.5 26.01
11.5 209.5 25.9
10.5 180.5 27.17
10.5 181.5 27.11
10.5 182.5 27.04
10.5 183.5 26.97
10.5 184.5 26.88
10.5 185.5 26.86
10.5 186.5 26.87
10.5 187.5 26.9
10.5 188.5 26.91
10.5 189.5 26.87
10.5 190.5 26.8
10.5 191.5 26.77
10.5 192.5 26.73
10.5 193.5 26.72
10.5 194.5 26.75
10.5 195.5 26.79
10.5 196.5 26.74
10.5 197.5 26.73
10.5 198.5 26.69
10.5 199.5 26.62
10.5 200.5 26.27
10.5 201.5 26.15
10.5 202.5 26.04
10.5 203.5 25.99
10.5 204.5 26.1
10.5 205.5 26.22
10.5 206.5 26.33
10.5 207.5 26.43
10.5 208.5 26.44
10.5 209.5 26.38
