39.5 180.5 10.54
39.5 181.5 10.54
39.5 182.5 10.54
39.5 183.5 10.69
39.5 184.5 11.32
39.5 185.5 11.29
39.5 186.5 11
39.5 187.5 10.82
39.5 188.5 11.25
39.5 189.5 11.22
39.5 190.5 11.05
39.5 191.5 10.94
39.5 192.5 11.15
39.5 193.5 11.18
39.5 194.5 11.18
39.5 195.5 11.08
39.5 196.5 10.76
39.5 197.5 10.54
39.5 198.5 10.39
39.5 199.5 10.32
39.5 200.5 10.4
39.5 201.5 10.43
39.5 202.5 10.42
39.5 203.5 10.46
39.5 204.5 10.72
39.5 205.5 10.67
39.5 206.5 10.56
39.5 207.5 10.56
39.5 208.5 10.84
39.5 209.5 11.05
38.5 180.5 11.73
38.5 181.5 11.77
38.5 182.5 11.86
38.5 183.5 12.04
38.5 184.5 12.55
38.5 185.5 12.47
38.5 186.5 12.15
38.5 187.5 11.95
38.5 188.5 12.37
38.5 189.5 12.29
38.5 190.5 12.06
38.5 191.5 11.87
38.5 192.5 12.04
38.5 193.5 12.07
38.5 194.5 12.07
38.5 195.5 11.95
38.5 196.5 11.56
38.5 197.5 11.32
38.5 198.5 11.16
38.5 199.5 11.1
38.5 200.5 11.22
38.5 201.5 11.23
38.5 202.5 11.19
38.5 203.5 11.21
38.5 204.5 11.49
38.5 205.5 11.46
38.5 206.5 11.37
38.5 207.5 11.36
38.5 208.5 11.61
38.5 209.5 11.78
37.5 180.5 12.88
37.5 181.5 12.89
37.5 182.5 13.02
37.5 183.5 13.2
37.5 184.5 13.5
37.5 185.5 13.36
37.5 186.5 13.05
37.5 187.5 12.84
37.5 188.5 13.15
37.5 189.5 12.99
37.5 190.5 12.67
37.5 191.5 12.4
37.5 192.5 12.54
37.5 193.5 12.57
37.5 194.5 12.58
37.5 195.5 12.5
37.5 196.5 12.2
37.5 197.5 12.01
37.5 198.5 11.88
37.5 199.5 11.85
37.5 200.5 11.97
37.5 201.5 11.97
37.5 202.5 11.91
37.5 203.5 11.9
37.5 204.5 12.17
37.5 205.5 12.18
37.5 206.5 12.13
37.5 207.5 12.14
37.5 208.5 12.39
37.5 209.5 12.53
36.5 180.5 13.83
36.5 181.5 13.73
36.5 182.5 13.88
36.5 183.5 14.04
36.5 184.5 14.1
36.5 185.5 13.93
36.5 186.5 13.65
36.5 187.5 13.46
36.5 188.5 13.62
36.5 189.5 13.38
36.5 190.5 12.98
36.5 191.5 12.67
36.5 192.5 12.76
36.5 193.5 12.81
36.5 194.5 12.86
36.5 195.5 12.85
36.5 196.5 12.74
36.5 197.5 12.62
36.5 198.5 12.54
36.5 199.5 12.54
36.5 200.5 12.68
36.5 201.5 12.68
36.5 202.5 12.63
36.5 203.5 12.62
36.5 204.5 12.86
36.5 205.5 12.89
36.5 206.5 12.86
36.5 207.5 12.89
36.5 208.5 13.15
36.5 209.5 13.29
35.5 180.5 14.52
35.5 181.5 14.37
35.5 182.5 14.56
35.5 183.5 14.73
35.5 184.5 14.69
35.5 185.5 14.49
35.5 186.5 14.24
35.5 187.5 14.04
35.5 188.5 13.98
35.5 189.5 13.71
35.5 190.5 13.32
35.5 191.5 13.01
35.5 192.5 13.1
35.5 193.5 13.16
35.5 194.5 13.24
35.5 195.5 13.28
35.5 196.5 13.35
35.5 197.5 13.29
35.5 198.5 13.28
35.5 199.5 13.31
35.5 200.5 13.44
35.5 201.5 13.48
35.5 202.5 13.48
35.5 203.5 13.52
35.5 204.5 13.74
35.5 205.5 13.74
35.5 206.5 13.67
35.5 207.5 13.67
35.5 208.5 13.96
35.5 209.5 14.09
34.5 180.5 14.91
34.5 181.5 14.77
34.5 182.5 14.95
34.5 183.5 15.09
34.5 184.5 15.02
34.5 185.5 14.83
34.5 186.5 14.64
34.5 187.5 14.49
34.5 188.5 14.4
34.5 189.5 14.19
34.5 190.5 13.88
34.5 191.5 13.65
34.5 192.5 13.71
34.5 193.5 13.81
34.5 194.5 13.93
34.5 195.5 13.99
34.5 196.5 14.11
34.5 197.5 14.09
34.5 198.5 14.11
34.5 199.5 14.18
34.5 200.5 14.34
34.5 201.5 14.42
34.5 202.5 14.45
34.5 203.5 14.51
34.5 204.5 14.69
34.5 205.5 14.68
34.5 206.5 14.61
34.5 207.5 14.58
34.5 208.5 14.88
34.5 209.5 15
33.5 180.5 15.39
33.5 181.5 15.34
33.5 182.5 15.52
33.5 183.5 15.63
33.5 184.5 15.55
33.5 185.5 15.38
33.5 186.5 15.24
33.5 187.5 15.12
33.5 188.5 15.03
33.5 189.5 14.88
33.5 190.5 14.68
33.5 191.5 14.55
33.5 192.5 14.57
33.5 193.5 14.7
33.5 194.5 14.85
33.5 195.5 14.92
33.5 196.5 14.98
33.5 197.5 14.98
33.5 198.5 15.02
33.5 199.5 15.09
33.5 200.5 15.25
33.5 201.5 15.32
33.5 202.5 15.36
33.5 203.5 15.46
33.5 204.5 15.58
33.5 205.5 15.58
33.5 206.5 15.51
33.5 207.5 15.48
33.5 208.5 15.7
33.5 209.5 15.79
32.5 180.5 16.07
32.5 181.5 16.14
32.5 182.5 16.34
32.5 183.5 16.43
32.5 184.5 16.35
32.5 185.5 16.21
32.5 186.5 16.1
32.5 187.5 15.98
32.5 188.5 15.9
32.5 189.5 15.8
32.5 190.5 15.7
32.5 191.5 15.65
32.5 192.5 15.6
32.5 193.5 15.71
32.5 194.5 15.85
32.5 195.5 15.92
32.5 196.5 15.88
32.5 197.5 15.9
32.5 198.5 15.94
32.5 199.5 16
32.5 200.5 16.12
32.5 201.5 16.17
32.5 202.5 16.2
32.5 203.5 16.29
32.5 204.5 16.37
32.5 205.5 16.39
32.5 206.5 16.34
32.5 207.5 16.3
32.5 208.5 16.4
32.5 209.5 16.43
31.5 180.5 17.02
31.5 181.5 17.18
31.5 182.5 17.38
31.5 183.5 17.47
31.5 184.5 17.36
31.5 185.5 17.22
31.5 186.5 17.11
31.5 187.5 16.97
31.5 188.5 16.93
31.5 189.5 16.94
31.5 190.5 16.97
31.5 191.5 16.99
31.5 192.5 16.83
31.5 193.5 16.83
31.5 194.5 16.87
31.5 195.5 16.88
31.5 196.5 16.75
31.5 197.5 16.8
31.5 198.5 16.87
31.5 199.5 16.94
31.5 200.5 17.03
31.5 201.5 17.06
31.5 202.5 17.07
31.5 203.5 17.13
31.5 204.5 17.14
31.5 205.5 17.16
31.5 206.5 17.13
31.5 207.5 17.11
31.5 208.5 17.06
31.5 209.5 17.07
30.5 180.5 17.98
30.5 181.5 18.11
30.5 182.5 18.27
30.5 183.5 18.31
30.5 184.5 18.08
30.5 185.5 17.92
30.5 186.5 17.8
30.5 187.5 17.7
30.5 188.5 17.8
30.5 189.5 17.87
30.5 190.5 17.92
30.5 191.5 17.97
30.5 192.5 17.9
30.5 193.5 17.86
30.5 194.5 17.82
30.5 195.5 17.81
30.5 196.5 17.7
30.5 197.5 17.77
30.5 198.5 17.86
30.5 199.5 17.94
30.5 200.5 17.96
30.5 201.5 17.97
30.5 202.5 17.95
30.5 203.5 17.94
30.5 204.5 17.89
30.5 205.5 17.92
30.5 206.5 17.94
30.5 207.5 17.98
30.5 208.5 17.99
30.5 209.5 17.96
29.5 180.5 18.97
29.5 181.5 19
29.5 182.5 19.06
29.5 183.5 19.03
29.5 184.5 18.64
29.5 185.5 18.47
29.5 186.5 18.35
29.5 187.5 18.31
29.5 188.5 18.56
29.5 189.5 18.69
29.5 190.5 18.75
29.5 191.5 18.8
29.5 192.5 18.9
29.5 193.5 18.84
29.5 194.5 18.75
29.5 195.5 18.72
29.5 196.5 18.67
29.5 197.5 18.75
29.5 198.5 18.84
29.5 199.5 18.95
29.5 200.5 18.94
29.5 201.5 18.96
29.5 202.5 18.9
29.5 203.5 18.82
29.5 204.5 18.72
29.5 205.5 18.75
29.5 206.5 18.8
29.5 207.5 18.89
29.5 208.5 18.95
29.5 209.5 18.88
28.5 180.5 19.98
28.5 181.5 19.91
28.5 182.5 19.89
28.5 183.5 19.76
28.5 184.5 19.26
28.5 185.5 19.08
28.5 186.5 18.99
28.5 187.5 19.01
28.5 188.5 19.31
28.5 189.5 19.44
28.5 190.5 19.48
28.5 191.5 19.52
28.5 192.5 19.75
28.5 193.5 19.69
28.5 194.5 19.57
28.5 195.5 19.53
28.5 196.5 19.59
28.5 197.5 19.67
28.5 198.5 19.75
28.5 199.5 19.89
28.5 200.5 19.91
28.5 201.5 19.94
28.5 202.5 19.86
28.5 203.5 19.73
28.5 204.5 19.62
28.5 205.5 19.63
28.5 206.5 19.68
28.5 207.5 19.78
28.5 208.5 19.85
28.5 209.5 19.76
27.5 180.5 20.92
27.5 181.5 20.89
27.5 182.5 20.86
27.5 183.5 20.72
27.5 184.5 20.17
27.5 185.5 20.04
27.5 186.5 20
27.5 187.5 20.05
27.5 188.5 20.22
27.5 189.5 20.28
27.5 190.5 20.27
27.5 191.5 20.27
27.5 192.5 20.46
27.5 193.5 20.38
27.5 194.5 20.23
27.5 195.5 20.21
27.5 196.5 20.46
27.5 197.5 20.54
27.5 198.5 20.59
27.5 199.5 20.73
27.5 200.5 20.88
27.5 201.5 20.92
27.5 202.5 20.78
27.5 203.5 20.61
27.5 204.5 20.47
27.5 205.5 20.41
27.5 206.5 20.4
27.5 207.5 20.5
27.5 208.5 20.65
27.5 209.5 20.61
26.5 180.5 21.8
26.5 181.5 21.8
26.5 182.5 21.79
26.5 183.5 21.67
26.5 184.5 21.27
26.5 185.5 21.23
26.5 186.5 21.26
26.5 187.5 21.3
26.5 188.5 21.27
26.5 189.5 21.2
26.5 190.5 21.09
26.5 191.5 20.99
26.5 192.5 21.03
26.5 193.5 20.95
26.5 194.5 20.86
26.5 195.5 20.93
26.5 196.5 21.28
26.5 197.5 21.34
26.5 198.5 21.32
26.5 199.5 21.4
26.5 200.5 21.61
26.5 201.5 21.63
26.5 202.5 21.47
26.5 203.5 21.29
26.5 204.5 21.19
26.5 205.5 21.09
26.5 206.5 21.02
26.5 207.5 21.07
26.5 208.5 21.27
26.5 209.5 21.2
25.5 180.5 22.57
25.5 181.5 22.63
25.5 182.5 22.65
25.5 183.5 22.58
25.5 184.5 22.36
25.5 185.5 22.41
25.5 186.5 22.5
25.5 187.5 22.53
25.5 188.5 22.34
25.5 189.5 22.15
25.5 190.5 21.95
25.5 191.5 21.74
25.5 192.5 21.64
25.5 193.5 21.58
25.5 194.5 21.56
25.5 195.5 21.72
25.5 196.5 22.07
25.5 197.5 22.1
25.5 198.5 21.99
25.5 199.5 21.97
25.5 200.5 22.16
25.5 201.5 22.16
25.5 202.5 22.01
25.5 203.5 21.87
25.5 204.5 21.83
25.5 205.5 21.71
25.5 206.5 21.6
25.5 207.5 21.61
25.5 208.5 21.8
25.5 209.5 21.7
24.5 180.5 23.15
24.5 181.5 23.24
24.5 182.5 23.28
24.5 183.5 23.27
24.5 184.5 23.17
24.5 185.5 23.28
24.5 186.5 23.41
24.5 187.5 23.46
24.5 188.5 23.21
24.5 189.5 22.97
24.5 190.5 22.71
24.5 191.5 22.45
24.5 192.5 22.34
24.5 193.5 22.31
24.5 194.5 22.36
24.5 195.5 22.54
24.5 196.5 22.8
24.5 197.5 22.76
24.5 198.5 22.57
24.5 199.5 22.45
24.5 200.5 22.57
24.5 201.5 22.55
24.5 202.5 22.45
24.5 203.5 22.39
24.5 204.5 22.45
24.5 205.5 22.35
24.5 206.5 22.22
24.5 207.5 22.17
24.5 208.5 22.27
24.5 209.5 22.14
23.5 180.5 23.42
23.5 181.5 23.53
23.5 182.5 23.63
23.5 183.5 23.69
23.5 184.5 23.63
23.5 185.5 23.75
23.5 186.5 23.89
23.5 187.5 23.93
23.5 188.5 23.7
23.5 189.5 23.49
23.5 190.5 23.24
23.5 191.5 23.03
23.5 192.5 23.11
23.5 193.5 23.14
23.5 194.5 23.2
23.5 195.5 23.31
23.5 196.5 23.44
23.5 197.5 23.37
23.5 198.5 23.17
23.5 199.5 22.99
23.5 200.5 23.01
23.5 201.5 22.98
23.5 202.5 22.93
23.5 203.5 22.95
23.5 204.5 23.08
23.5 205.5 22.99
23.5 206.5 22.83
23.5 207.5 22.72
23.5 208.5 22.68
23.5 209.5 22.59
22.5 180.5 23.77
22.5 181.5 23.84
22.5 182.5 23.93
22.5 183.5 24
22.5 184.5 23.95
22.5 185.5 24.05
22.5 186.5 24.18
22.5 187.5 24.23
22.5 188.5 24.07
22.5 189.5 23.9
22.5 190.5 23.69
22.5 191.5 23.53
22.5 192.5 23.66
22.5 193.5 23.7
22.5 194.5 23.75
22.5 195.5 23.81
22.5 196.5 23.82
22.5 197.5 23.7
22.5 198.5 23.49
22.5 199.5 23.31
22.5 200.5 23.32
22.5 201.5 23.31
22.5 202.5 23.32
22.5 203.5 23.4
22.5 204.5 23.55
22.5 205.5 23.47
22.5 206.5 23.3
22.5 207.5 23.15
22.5 208.5 22.98
22.5 209.5 22.86
21.5 180.5 24.18
21.5 181.5 24.2
21.5 182.5 24.29
21.5 183.5 24.36
21.5 184.5 24.35
21.5 185.5 24.44
21.5 186.5 24.53
21.5 187.5 24.57
21.5 188.5 24.46
21.5 189.5 24.34
21.5 190.5 24.18
21.5 191.5 24.05
21.5 192.5 24.1
21.5 193.5 24.11
21.5 194.5 24.12
21.5 195.5 24.11
21.5 196.5 24.07
21.5 197.5 23.93
21.5 198.5 23.76
21.5 199.5 23.62
21.5 200.5 23.66
21.5 201.5 23.68
21.5 202.5 23.71
21.5 203.5 23.79
21.5 204.5 23.86
21.5 205.5 23.75
21.5 206.5 23.59
21.5 207.5 23.42
21.5 208.5 23.2
21.5 209.5 23.07
20.5 180.5 24.68
20.5 181.5 24.69
20.5 182.5 24.75
20.5 183.5 24.84
20.5 184.5 24.84
20.5 185.5 24.92
20.5 186.5 24.98
20.5 187.5 24.99
20.5 188.5 24.9
20.5 189.5 24.79
20.5 190.5 24.66
20.5 191.5 24.54
20.5 192.5 24.48
20.5 193.5 24.43
20.5 194.5 24.38
20.5 195.5 24.34
20.5 196.5 24.29
20.5 197.5 24.19
20.5 198.5 24.07
20.5 199.5 23.98
20.5 200.5 24.05
20.5 201.5 24.07
20.5 202.5 24.09
20.5 203.5 24.12
20.5 204.5 24.07
20.5 205.5 23.94
20.5 206.5 23.76
20.5 207.5 23.59
20.5 208.5 23.41
20.5 209.5 23.29
19.5 180.5 25.23
19.5 181.5 25.24
19.5 182.5 25.29
19.5 183.5 25.33
19.5 184.5 25.27
19.5 185.5 25.32
19.5 186.5 25.35
19.5 187.5 25.35
19.5 188.5 25.27
19.5 189.5 25.17
19.5 190.5 25.06
19.5 191.5 24.95
19.5 192.5 24.85
19.5 193.5 24.76
19.5 194.5 24.67
19.5 195.5 24.6
19.5 196.5 24.58
19.5 197.5 24.54
19.5 198.5 24.49
19.5 199.5 24.44
19.5 200.5 24.48
19.5 201.5 24.46
19.5 202.5 24.43
19.5 203.5 24.36
19.5 204.5 24.22
19.5 205.5 24.06
19.5 206.5 23.89
19.5 207.5 23.75
19.5 208.5 23.64
19.5 209.5 23.59
18.5 180.5 25.66
18.5 181.5 25.66
18.5 182.5 25.65
18.5 183.5 25.64
18.5 184.5 25.53
18.5 185.5 25.54
18.5 186.5 25.54
18.5 187.5 25.51
18.5 188.5 25.43
18.5 189.5 25.33
18.5 190.5 25.23
18.5 191.5 25.14
18.5 192.5 25.07
18.5 193.5 24.98
18.5 194.5 24.89
18.5 195.5 24.83
18.5 196.5 24.8
18.5 197.5 24.77
18.5 198.5 24.72
18.5 199.5 24.67
18.5 200.5 24.65
18.5 201.5 24.59
18.5 202.5 24.53
18.5 203.5 24.45
18.5 204.5 24.33
18.5 205.5 24.18
18.5 206.5 24.06
18.5 207.5 23.98
18.5 208.5 23.95
18.5 209.5 23.92
17.5 180.5 25.93
17.5 181.5 25.89
17.5 182.5 25.84
17.5 183.5 25.77
17.5 184.5 25.63
17.5 185.5 25.6
17.5 186.5 25.58
17.5 187.5 25.54
17.5 188.5 25.46
17.5 189.5 25.37
17.5 190.5 25.29
17.5 191.5 25.24
17.5 192.5 25.21
17.5 193.5 25.14
17.5 194.5 25.07
17.5 195.5 25.01
17.5 196.5 24.97
17.5 197.5 24.91
17.5 198.5 24.86
17.5 199.5 24.78
17.5 200.5 24.71
17.5 201.5 24.63
17.5 202.5 24.57
17.5 203.5 24.49
17.5 204.5 24.4
17.5 205.5 24.31
17.5 206.5 24.26
17.5 207.5 24.24
17.5 208.5 24.27
17.5 209.5 24.26
16.5 180.5 26.04
16.5 181.5 25.98
16.5 182.5 25.89
16.5 183.5 25.78
16.5 184.5 25.66
16.5 185.5 25.61
16.5 186.5 25.58
16.5 187.5 25.55
16.5 188.5 25.51
16.5 189.5 25.45
16.5 190.5 25.39
16.5 191.5 25.35
16.5 192.5 25.35
16.5 193.5 25.29
16.5 194.5 25.22
16.5 195.5 25.15
16.5 196.5 25.07
16.5 197.5 24.99
16.5 198.5 24.92
16.5 199.5 24.83
16.5 200.5 24.76
16.5 201.5 24.68
16.5 202.5 24.63
16.5 203.5 24.58
16.5 204.5 24.55
16.5 205.5 24.52
16.5 206.5 24.53
16.5 207.5 24.54
16.5 208.5 24.58
16.5 209.5 24.56
15.5 180.5 26.03
15.5 181.5 25.95
15.5 182.5 25.85
15.5 183.5 25.75
15.5 184.5 25.71
15.5 185.5 25.7
15.5 186.5 25.69
15.5 187.5 25.69
15.5 188.5 25.69
15.5 189.5 25.62
15.5 190.5 25.56
15.5 191.5 25.53
15.5 192.5 25.47
15.5 193.5 25.42
15.5 194.5 25.36
15.5 195.5 25.27
15.5 196.5 25.15
15.5 197.5 25.07
15.5 198.5 24.99
15.5 199.5 24.9
15.5 200.5 24.88
15.5 201.5 24.82
15.5 202.5 24.8
15.5 203.5 24.81
15.5 204.5 24.84
15.5 205.5 24.87
15.5 206.5 24.89
15.5 207.5 24.91
15.5 208.5 24.9
15.5 209.5 24.84
14.5 180.5 26.08
14.5 181.5 26.01
14.5 182.5 25.93
14.5 183.5 25.85
14.5 184.5 25.87
14.5 185.5 25.88
14.5 186.5 25.88
14.5 187.5 25.88
14.5 188.5 25.9
14.5 189.5 25.83
14.5 190.5 25.76
14.5 191.5 25.72
14.5 192.5 25.64
14.5 193.5 25.59
14.5 194.5 25.52
14.5 195.5 25.43
14.5 196.5 25.32
14.5 197.5 25.24
14.5 198.5 25.18
14.5 199.5 25.11
14.5 200.5 25.11
14.5 201.5 25.07
14.5 202.5 25.08
14.5 203.5 25.1
14.5 204.5 25.18
14.5 205.5 25.23
14.5 206.5 25.25
14.5 207.5 25.26
14.5 208.5 25.21
14.5 209.5 25.12
13.5 180.5 26.16
13.5 181.5 26.11
13.5 182.5 26.07
13.5 183.5 26.03
13.5 184.5 26.09
13.5 185.5 26.11
13.5 186.5 26.11
13.5 187.5 26.11
13.5 188.5 26.11
13.5 189.5 26.03
13.5 190.5 25.95
13.5 191.5 25.89
13.5 192.5 25.82
13.5 193.5 25.77
13.5 194.5 25.72
13.5 195.5 25.64
13.5 196.5 25.57
13.5 197.5 25.53
13.5 198.5 25.5
13.5 199.5 25.47
13.5 200.5 25.45
13.5 201.5 25.43
13.5 202.5 25.45
13.5 203.5 25.49
13.5 204.5 25.55
13.5 205.5 25.58
13.5 206.5 25.57
13.5 207.5 25.55
13.5 208.5 25.47
13.5 209.5 25.38
12.5 180.5 26.26
12.5 181.5 26.24
12.5 182.5 26.23
12.5 183.5 26.24
12.5 184.5 26.32
12.5 185.5 26.35
12.5 186.5 26.35
12.5 187.5 26.33
12.5 188.5 26.3
12.5 189.5 26.21
12.5 190.5 26.13
12.5 191.5 26.07
12.5 192.5 26.03
12.5 193.5 25.99
12.5 194.5 25.96
12.5 195.5 25.91
12.5 196.5 25.9
12.5 197.5 25.91
12.5 198.5 25.92
12.5 199.5 25.92
12.5 200.5 25.88
12.5 201.5 25.87
12.5 202.5 25.9
12.5 203.5 25.92
12.5 204.5 25.91
12.5 205.5 25.88
12.5 206.5 25.84
12.5 207.5 25.78
12.5 208.5 25.69
12.5 209.5 25.62
11.5 180.5 26.35
11.5 181.5 26.35
11.5 182.5 26.37
11.5 183.5 26.45
11.5 184.5 26.53
11.5 185.5 26.58
11.5 186.5 26.58
11.5 187.5 26.56
11.5 188.5 26.52
11.5 189.5 26.47
11.5 190.5 26.42
11.5 191.5 26.37
11.5 192.5 26.34
11.5 193.5 26.29
11.5 194.5 26.26
11.5 195.5 26.24
11.5 196.5 26.29
11.5 197.5 26.34
11.5 198.5 26.38
11.5 199.5 26.4
11.5 200.5 26.34
11.5 201.5 26.34
11.5 202.5 26.36
11.5 203.5 26.36
11.5 204.5 26.23
11.5 205.5 26.16
11.5 206.5 26.08
11.5 207.5 25.98
11.5 208.5 25.9
11.5 209.5 25.86
10.5 180.5 26.5
10.5 181.5 26.52
10.5 182.5 26.57
10.5 183.5 26.67
10.5 184.5 26.78
10.5 185.5 26.82
10.5 186.5 26.82
10.5 187.5 26.8
10.5 188.5 26.8
10.5 189.5 26.8
10.5 190.5 26.78
10.5 191.5 26.78
10.5 192.5 26.75
10.5 193.5 26.7
10.5 194.5 26.66
10.5 195.5 26.63
10.5 196.5 26.65
10.5 197.5 26.69
10.5 198.5 26.72
10.5 199.5 26.73
10.5 200.5 26.7
10.5 201.5 26.7
10.5 202.5 26.72
10.5 203.5 26.73
10.5 204.5 26.57
10.5 205.5 26.5
10.5 206.5 26.42
10.5 207.5 26.31
10.5 208.5 26.2
10.5 209.5 26.18
