39.5 180.5 12.61
39.5 181.5 12.71
39.5 182.5 12.76
39.5 183.5 12.85
39.5 184.5 12.59
39.5 185.5 12.42
39.5 186.5 12.16
39.5 187.5 11.87
39.5 188.5 11.3
39.5 189.5 11.18
39.5 190.5 11.06
39.5 191.5 10.94
39.5 192.5 10.67
39.5 193.5 10.58
39.5 194.5 10.47
39.5 195.5 10.37
39.5 196.5 10.17
39.5 197.5 10.12
39.5 198.5 10.08
39.5 199.5 10.09
39.5 200.5 10.05
39.5 201.5 10.08
39.5 202.5 10.13
39.5 203.5 10.22
39.5 204.5 10.45
39.5 205.5 10.39
39.5 206.5 10.27
39.5 207.5 10.28
39.5 208.5 10.58
39.5 209.5 10.67
38.5 180.5 13.74
38.5 181.5 13.83
38.5 182.5 13.9
38.5 183.5 13.94
38.5 184.5 13.56
38.5 185.5 13.34
38.5 186.5 13.07
38.5 187.5 12.78
38.5 188.5 12.04
38.5 189.5 11.95
38.5 190.5 11.86
38.5 191.5 11.78
38.5 192.5 11.53
38.5 193.5 11.45
38.5 194.5 11.35
38.5 195.5 11.26
38.5 196.5 11.1
38.5 197.5 11.04
38.5 198.5 10.98
38.5 199.5 10.99
38.5 200.5 10.97
38.5 201.5 10.99
38.5 202.5 11.01
38.5 203.5 11.05
38.5 204.5 11.25
38.5 205.5 11.19
38.5 206.5 11.09
38.5 207.5 11.1
38.5 208.5 11.43
38.5 209.5 11.51
37.5 180.5 14.5
37.5 181.5 14.52
37.5 182.5 14.58
37.5 183.5 14.58
37.5 184.5 14.14
37.5 185.5 13.89
37.5 186.5 13.64
37.5 187.5 13.37
37.5 188.5 12.63
37.5 189.5 12.54
37.5 190.5 12.49
37.5 191.5 12.46
37.5 192.5 12.25
37.5 193.5 12.21
37.5 194.5 12.14
37.5 195.5 12.08
37.5 196.5 11.99
37.5 197.5 11.94
37.5 198.5 11.9
37.5 199.5 11.92
37.5 200.5 11.88
37.5 201.5 11.89
37.5 202.5 11.89
37.5 203.5 11.9
37.5 204.5 12.01
37.5 205.5 11.98
37.5 206.5 11.92
37.5 207.5 11.97
37.5 208.5 12.29
37.5 209.5 12.36
36.5 180.5 14.93
36.5 181.5 14.84
36.5 182.5 14.9
36.5 183.5 14.92
36.5 184.5 14.49
36.5 185.5 14.23
36.5 186.5 14
36.5 187.5 13.76
36.5 188.5 13.14
36.5 189.5 13.07
36.5 190.5 13.04
36.5 191.5 13.04
36.5 192.5 12.91
36.5 193.5 12.91
36.5 194.5 12.89
36.5 195.5 12.87
36.5 196.5 12.85
36.5 197.5 12.84
36.5 198.5 12.82
36.5 199.5 12.85
36.5 200.5 12.79
36.5 201.5 12.78
36.5 202.5 12.76
36.5 203.5 12.75
36.5 204.5 12.8
36.5 205.5 12.81
36.5 206.5 12.8
36.5 207.5 12.89
36.5 208.5 13.16
36.5 209.5 13.23
35.5 180.5 15.26
35.5 181.5 15.17
35.5 182.5 15.32
35.5 183.5 15.39
35.5 184.5 15.01
35.5 185.5 14.7
35.5 186.5 14.42
35.5 187.5 14.14
35.5 188.5 13.82
35.5 189.5 13.78
35.5 190.5 13.79
35.5 191.5 13.84
35.5 192.5 13.83
35.5 193.5 13.85
35.5 194.5 13.85
35.5 195.5 13.86
35.5 196.5 13.93
35.5 197.5 13.93
35.5 198.5 13.91
35.5 199.5 13.91
35.5 200.5 13.95
35.5 201.5 13.85
35.5 202.5 13.74
35.5 203.5 13.65
35.5 204.5 13.67
35.5 205.5 13.67
35.5 206.5 13.67
35.5 207.5 13.74
35.5 208.5 13.93
35.5 209.5 13.99
34.5 180.5 15.61
34.5 181.5 15.52
34.5 182.5 15.7
34.5 183.5 15.85
34.5 184.5 15.73
34.5 185.5 15.43
34.5 186.5 15.09
34.5 187.5 14.75
34.5 188.5 14.66
34.5 189.5 14.63
34.5 190.5 14.71
34.5 191.5 14.81
34.5 192.5 14.95
34.5 193.5 15
34.5 194.5 15.03
34.5 195.5 15.06
34.5 196.5 15.13
34.5 197.5 15.13
34.5 198.5 15.12
34.5 199.5 15.09
34.5 200.5 15
34.5 201.5 14.87
34.5 202.5 14.74
34.5 203.5 14.67
34.5 204.5 14.68
34.5 205.5 14.7
34.5 206.5 14.7
34.5 207.5 14.75
34.5 208.5 14.9
34.5 209.5 14.92
33.5 180.5 16.07
33.5 181.5 16.03
33.5 182.5 16.23
33.5 183.5 16.42
33.5 184.5 16.48
33.5 185.5 16.18
33.5 186.5 15.79
33.5 187.5 15.39
33.5 188.5 15.46
33.5 189.5 15.5
33.5 190.5 15.65
33.5 191.5 15.82
33.5 192.5 16.1
33.5 193.5 16.17
33.5 194.5 16.24
33.5 195.5 16.27
33.5 196.5 16.31
33.5 197.5 16.3
33.5 198.5 16.27
33.5 199.5 16.22
33.5 200.5 16.02
33.5 201.5 15.88
33.5 202.5 15.76
33.5 203.5 15.7
33.5 204.5 15.7
33.5 205.5 15.71
33.5 206.5 15.69
33.5 207.5 15.7
33.5 208.5 15.78
33.5 209.5 15.77
32.5 180.5 16.72
32.5 181.5 16.77
32.5 182.5 16.96
32.5 183.5 17.13
32.5 184.5 17.2
32.5 185.5 16.88
32.5 186.5 16.44
32.5 187.5 16.03
32.5 188.5 16.25
32.5 189.5 16.36
32.5 190.5 16.58
32.5 191.5 16.8
32.5 192.5 17.18
32.5 193.5 17.29
32.5 194.5 17.37
32.5 195.5 17.39
32.5 196.5 17.39
32.5 197.5 17.36
32.5 198.5 17.33
32.5 199.5 17.27
32.5 200.5 17.03
32.5 201.5 16.9
32.5 202.5 16.79
32.5 203.5 16.71
32.5 204.5 16.66
32.5 205.5 16.65
32.5 206.5 16.61
32.5 207.5 16.56
32.5 208.5 16.55
32.5 209.5 16.52
31.5 180.5 17.48
31.5 181.5 17.58
31.5 182.5 17.74
31.5 183.5 17.83
31.5 184.5 17.83
31.5 185.5 17.5
31.5 186.5 17.08
31.5 187.5 16.74
31.5 188.5 17.14
31.5 189.5 17.3
31.5 190.5 17.54
31.5 191.5 17.78
31.5 192.5 18.28
31.5 193.5 18.4
31.5 194.5 18.48
31.5 195.5 18.49
31.5 196.5 18.45
31.5 197.5 18.42
31.5 198.5 18.42
31.5 199.5 18.39
31.5 200.5 18.18
31.5 201.5 18.05
31.5 202.5 17.94
31.5 203.5 17.82
31.5 204.5 17.63
31.5 205.5 17.57
31.5 206.5 17.52
31.5 207.5 17.44
31.5 208.5 17.31
31.5 209.5 17.29
30.5 180.5 18.16
30.5 181.5 18.19
30.5 182.5 18.26
30.5 183.5 18.27
30.5 184.5 18.35
30.5 185.5 18.12
30.5 186.5 17.89
30.5 187.5 17.76
30.5 188.5 18.21
30.5 189.5 18.42
30.5 190.5 18.66
30.5 191.5 18.88
30.5 192.5 19.26
30.5 193.5 19.41
30.5 194.5 19.52
30.5 195.5 19.54
30.5 196.5 19.46
30.5 197.5 19.46
30.5 198.5 19.5
30.5 199.5 19.49
30.5 200.5 19.22
30.5 201.5 19.14
30.5 202.5 19.08
30.5 203.5 18.95
30.5 204.5 18.69
30.5 205.5 18.6
30.5 206.5 18.58
30.5 207.5 18.55
30.5 208.5 18.49
30.5 209.5 18.45
29.5 180.5 19.02
29.5 181.5 18.93
29.5 182.5 18.91
29.5 183.5 18.84
29.5 184.5 19.02
29.5 185.5 18.95
29.5 186.5 18.92
29.5 187.5 19.03
29.5 188.5 19.4
29.5 189.5 19.59
29.5 190.5 19.77
29.5 191.5 19.92
29.5 192.5 20.1
29.5 193.5 20.28
29.5 194.5 20.42
29.5 195.5 20.48
29.5 196.5 20.4
29.5 197.5 20.42
29.5 198.5 20.49
29.5 199.5 20.47
29.5 200.5 20.15
29.5 201.5 20.1
29.5 202.5 20.11
29.5 203.5 20
29.5 204.5 19.73
29.5 205.5 19.64
29.5 206.5 19.65
29.5 207.5 19.67
29.5 208.5 19.67
29.5 209.5 19.62
28.5 180.5 20.04
28.5 181.5 19.87
28.5 182.5 19.78
28.5 183.5 19.65
28.5 184.5 19.96
28.5 185.5 20.04
28.5 186.5 20.21
28.5 187.5 20.47
28.5 188.5 20.65
28.5 189.5 20.71
28.5 190.5 20.76
28.5 191.5 20.77
28.5 192.5 20.71
28.5 193.5 20.9
28.5 194.5 21.08
28.5 195.5 21.18
28.5 196.5 21.13
28.5 197.5 21.16
28.5 198.5 21.24
28.5 199.5 21.22
28.5 200.5 20.87
28.5 201.5 20.86
28.5 202.5 20.92
28.5 203.5 20.86
28.5 204.5 20.64
28.5 205.5 20.58
28.5 206.5 20.64
28.5 207.5 20.72
28.5 208.5 20.71
28.5 209.5 20.63
27.5 180.5 21.12
27.5 181.5 20.96
27.5 182.5 20.88
27.5 183.5 20.78
27.5 184.5 21.03
27.5 185.5 21.22
27.5 186.5 21.49
27.5 187.5 21.77
27.5 188.5 21.74
27.5 189.5 21.62
27.5 190.5 21.51
27.5 191.5 21.39
27.5 192.5 21.25
27.5 193.5 21.48
27.5 194.5 21.73
27.5 195.5 21.87
27.5 196.5 21.9
27.5 197.5 21.88
27.5 198.5 21.92
27.5 199.5 21.87
27.5 200.5 21.54
27.5 201.5 21.53
27.5 202.5 21.58
27.5 203.5 21.56
27.5 204.5 21.31
27.5 205.5 21.37
27.5 206.5 21.53
27.5 207.5 21.66
27.5 208.5 21.55
27.5 209.5 21.46
26.5 180.5 22.17
26.5 181.5 22.07
26.5 182.5 22.03
26.5 183.5 21.94
26.5 184.5 22.05
26.5 185.5 22.21
26.5 186.5 22.46
26.5 187.5 22.65
26.5 188.5 22.45
26.5 189.5 22.22
26.5 190.5 22.02
26.5 191.5 21.85
26.5 192.5 21.8
26.5 193.5 22.04
26.5 194.5 22.32
26.5 195.5 22.5
26.5 196.5 22.6
26.5 197.5 22.54
26.5 198.5 22.5
26.5 199.5 22.39
26.5 200.5 22.03
26.5 201.5 22.02
26.5 202.5 22.1
26.5 203.5 22.12
26.5 204.5 21.94
26.5 205.5 22.06
26.5 206.5 22.25
26.5 207.5 22.37
26.5 208.5 22.23
26.5 209.5 22.09
25.5 180.5 23.1
25.5 181.5 23.1
25.5 182.5 23.11
25.5 183.5 23.04
25.5 184.5 23.01
25.5 185.5 23.09
25.5 186.5 23.25
25.5 187.5 23.32
25.5 188.5 23.04
25.5 189.5 22.76
25.5 190.5 22.53
25.5 191.5 22.37
25.5 192.5 22.48
25.5 193.5 22.73
25.5 194.5 22.98
25.5 195.5 23.17
25.5 196.5 23.3
25.5 197.5 23.2
25.5 198.5 23.08
25.5 199.5 22.93
25.5 200.5 22.56
25.5 201.5 22.56
25.5 202.5 22.63
25.5 203.5 22.69
25.5 204.5 22.57
25.5 205.5 22.72
25.5 206.5 22.89
25.5 207.5 22.99
25.5 208.5 22.83
25.5 209.5 22.62
24.5 180.5 23.83
24.5 181.5 23.91
24.5 182.5 23.98
24.5 183.5 23.96
24.5 184.5 23.86
24.5 185.5 23.83
24.5 186.5 23.87
24.5 187.5 23.82
24.5 188.5 23.55
24.5 189.5 23.29
24.5 190.5 23.11
24.5 191.5 23.03
24.5 192.5 23.29
24.5 193.5 23.53
24.5 194.5 23.73
24.5 195.5 23.88
24.5 196.5 23.98
24.5 197.5 23.85
24.5 198.5 23.69
24.5 199.5 23.54
24.5 200.5 23.23
24.5 201.5 23.21
24.5 202.5 23.25
24.5 203.5 23.28
24.5 204.5 23.21
24.5 205.5 23.35
24.5 206.5 23.49
24.5 207.5 23.55
24.5 208.5 23.36
24.5 209.5 23.11
23.5 180.5 24.31
23.5 181.5 24.43
23.5 182.5 24.58
23.5 183.5 24.64
23.5 184.5 24.6
23.5 185.5 24.53
23.5 186.5 24.47
23.5 187.5 24.31
23.5 188.5 24.08
23.5 189.5 23.89
23.5 190.5 23.79
23.5 191.5 23.83
23.5 192.5 24.04
23.5 193.5 24.26
23.5 194.5 24.4
23.5 195.5 24.49
23.5 196.5 24.52
23.5 197.5 24.42
23.5 198.5 24.3
23.5 199.5 24.21
23.5 200.5 24.07
23.5 201.5 23.97
23.5 202.5 23.87
23.5 203.5 23.79
23.5 204.5 23.8
23.5 205.5 23.88
23.5 206.5 23.94
23.5 207.5 23.93
23.5 208.5 23.71
23.5 209.5 23.48
22.5 180.5 24.78
22.5 181.5 24.9
22.5 182.5 25.05
22.5 183.5 25.12
22.5 184.5 25.11
22.5 185.5 25.07
22.5 186.5 24.98
22.5 187.5 24.82
22.5 188.5 24.67
22.5 189.5 24.51
22.5 190.5 24.44
22.5 191.5 24.49
22.5 192.5 24.63
22.5 193.5 24.77
22.5 194.5 24.81
22.5 195.5 24.8
22.5 196.5 24.79
22.5 197.5 24.72
22.5 198.5 24.65
22.5 199.5 24.63
22.5 200.5 24.66
22.5 201.5 24.56
22.5 202.5 24.41
22.5 203.5 24.28
22.5 204.5 24.26
22.5 205.5 24.25
22.5 206.5 24.22
22.5 207.5 24.12
22.5 208.5 23.9
22.5 209.5 23.7
21.5 180.5 25.3
21.5 181.5 25.39
21.5 182.5 25.5
21.5 183.5 25.56
21.5 184.5 25.55
21.5 185.5 25.55
21.5 186.5 25.5
21.5 187.5 25.37
21.5 188.5 25.28
21.5 189.5 25.14
21.5 190.5 25.07
21.5 191.5 25.08
21.5 192.5 25.11
21.5 193.5 25.15
21.5 194.5 25.11
21.5 195.5 25.05
21.5 196.5 25.04
21.5 197.5 25.01
21.5 198.5 24.99
21.5 199.5 25.03
21.5 200.5 25.13
21.5 201.5 25.04
21.5 202.5 24.87
21.5 203.5 24.67
21.5 204.5 24.57
21.5 205.5 24.47
21.5 206.5 24.35
21.5 207.5 24.2
21.5 208.5 24.04
21.5 209.5 23.9
20.5 180.5 25.84
20.5 181.5 25.89
20.5 182.5 25.94
20.5 183.5 25.96
20.5 184.5 25.93
20.5 185.5 25.97
20.5 186.5 25.97
20.5 187.5 25.88
20.5 188.5 25.81
20.5 189.5 25.69
20.5 190.5 25.6
20.5 191.5 25.56
20.5 192.5 25.55
20.5 193.5 25.51
20.5 194.5 25.43
20.5 195.5 25.35
20.5 196.5 25.38
20.5 197.5 25.38
20.5 198.5 25.39
20.5 199.5 25.45
20.5 200.5 25.52
20.5 201.5 25.4
20.5 202.5 25.19
20.5 203.5 24.95
20.5 204.5 24.78
20.5 205.5 24.61
20.5 206.5 24.44
20.5 207.5 24.28
20.5 208.5 24.24
20.5 209.5 24.17
19.5 180.5 26.28
19.5 181.5 26.29
19.5 182.5 26.29
19.5 183.5 26.27
19.5 184.5 26.23
19.5 185.5 26.27
19.5 186.5 26.29
19.5 187.5 26.23
19.5 188.5 26.19
19.5 189.5 26.09
19.5 190.5 26
19.5 191.5 25.94
19.5 192.5 25.96
19.5 193.5 25.92
19.5 194.5 25.85
19.5 195.5 25.8
19.5 196.5 25.79
19.5 197.5 25.79
19.5 198.5 25.79
19.5 199.5 25.78
19.5 200.5 25.71
19.5 201.5 25.54
19.5 202.5 25.3
19.5 203.5 25.05
19.5 204.5 24.92
19.5 205.5 24.73
19.5 206.5 24.54
19.5 207.5 24.4
19.5 208.5 24.45
19.5 209.5 24.39
18.5 180.5 26.52
18.5 181.5 26.5
18.5 182.5 26.47
18.5 183.5 26.43
18.5 184.5 26.41
18.5 185.5 26.43
18.5 186.5 26.46
18.5 187.5 26.43
18.5 188.5 26.41
18.5 189.5 26.33
18.5 190.5 26.25
18.5 191.5 26.19
18.5 192.5 26.21
18.5 193.5 26.16
18.5 194.5 26.1
18.5 195.5 26.05
18.5 196.5 25.98
18.5 197.5 25.93
18.5 198.5 25.87
18.5 199.5 25.78
18.5 200.5 25.59
18.5 201.5 25.4
18.5 202.5 25.19
18.5 203.5 25
18.5 204.5 24.99
18.5 205.5 24.87
18.5 206.5 24.71
18.5 207.5 24.58
18.5 208.5 24.61
18.5 209.5 24.52
17.5 180.5 26.59
17.5 181.5 26.56
17.5 182.5 26.53
17.5 183.5 26.49
17.5 184.5 26.51
17.5 185.5 26.54
17.5 186.5 26.57
17.5 187.5 26.54
17.5 188.5 26.51
17.5 189.5 26.46
17.5 190.5 26.4
17.5 191.5 26.35
17.5 192.5 26.33
17.5 193.5 26.27
17.5 194.5 26.22
17.5 195.5 26.17
17.5 196.5 26.04
17.5 197.5 25.95
17.5 198.5 25.83
17.5 199.5 25.69
17.5 200.5 25.44
17.5 201.5 25.27
17.5 202.5 25.1
17.5 203.5 24.99
17.5 204.5 25.06
17.5 205.5 24.99
17.5 206.5 24.89
17.5 207.5 24.78
17.5 208.5 24.73
17.5 209.5 24.6
16.5 180.5 26.58
16.5 181.5 26.55
16.5 182.5 26.53
16.5 183.5 26.54
16.5 184.5 26.62
16.5 185.5 26.66
16.5 186.5 26.67
16.5 187.5 26.65
16.5 188.5 26.6
16.5 189.5 26.57
16.5 190.5 26.53
16.5 191.5 26.48
16.5 192.5 26.42
16.5 193.5 26.35
16.5 194.5 26.28
16.5 195.5 26.21
16.5 196.5 26.07
16.5 197.5 25.95
16.5 198.5 25.79
16.5 199.5 25.64
16.5 200.5 25.43
16.5 201.5 25.3
16.5 202.5 25.18
16.5 203.5 25.13
16.5 204.5 25.19
16.5 205.5 25.16
16.5 206.5 25.08
16.5 207.5 24.97
16.5 208.5 24.84
16.5 209.5 24.69
15.5 180.5 26.64
15.5 181.5 26.64
15.5 182.5 26.67
15.5 183.5 26.73
15.5 184.5 26.81
15.5 185.5 26.84
15.5 186.5 26.85
15.5 187.5 26.83
15.5 188.5 26.76
15.5 189.5 26.74
15.5 190.5 26.71
15.5 191.5 26.69
15.5 192.5 26.62
15.5 193.5 26.53
15.5 194.5 26.42
15.5 195.5 26.3
15.5 196.5 26.17
15.5 197.5 26.03
15.5 198.5 25.88
15.5 199.5 25.76
15.5 200.5 25.65
15.5 201.5 25.58
15.5 202.5 25.51
15.5 203.5 25.49
15.5 204.5 25.46
15.5 205.5 25.41
15.5 206.5 25.3
15.5 207.5 25.16
15.5 208.5 25.03
15.5 209.5 24.88
14.5 180.5 26.78
14.5 181.5 26.79
14.5 182.5 26.81
14.5 183.5 26.87
14.5 184.5 26.96
14.5 185.5 27
14.5 186.5 27
14.5 187.5 26.97
14.5 188.5 26.92
14.5 189.5 26.89
14.5 190.5 26.87
14.5 191.5 26.86
14.5 192.5 26.78
14.5 193.5 26.69
14.5 194.5 26.56
14.5 195.5 26.41
14.5 196.5 26.28
14.5 197.5 26.15
14.5 198.5 26.02
14.5 199.5 25.92
14.5 200.5 25.9
14.5 201.5 25.88
14.5 202.5 25.86
14.5 203.5 25.87
14.5 204.5 25.78
14.5 205.5 25.73
14.5 206.5 25.62
14.5 207.5 25.48
14.5 208.5 25.36
14.5 209.5 25.24
13.5 180.5 26.97
13.5 181.5 26.97
13.5 182.5 26.98
13.5 183.5 27.02
13.5 184.5 27.08
13.5 185.5 27.11
13.5 186.5 27.11
13.5 187.5 27.08
13.5 188.5 27.05
13.5 189.5 27.02
13.5 190.5 27
13.5 191.5 27
13.5 192.5 26.95
13.5 193.5 26.88
13.5 194.5 26.76
13.5 195.5 26.6
13.5 196.5 26.44
13.5 197.5 26.33
13.5 198.5 26.21
13.5 199.5 26.12
13.5 200.5 26.13
13.5 201.5 26.14
13.5 202.5 26.16
13.5 203.5 26.2
13.5 204.5 26.1
13.5 205.5 26.05
13.5 206.5 25.97
13.5 207.5 25.85
13.5 208.5 25.73
13.5 209.5 25.65
12.5 180.5 27.21
12.5 181.5 27.18
12.5 182.5 27.16
12.5 183.5 27.16
12.5 184.5 27.2
12.5 185.5 27.21
12.5 186.5 27.2
12.5 187.5 27.18
12.5 188.5 27.18
12.5 189.5 27.15
12.5 190.5 27.12
12.5 191.5 27.13
12.5 192.5 27.09
12.5 193.5 27.03
12.5 194.5 26.94
12.5 195.5 26.81
12.5 196.5 26.64
12.5 197.5 26.55
12.5 198.5 26.44
12.5 199.5 26.36
12.5 200.5 26.36
12.5 201.5 26.38
12.5 202.5 26.42
12.5 203.5 26.46
12.5 204.5 26.39
12.5 205.5 26.37
12.5 206.5 26.32
12.5 207.5 26.26
12.5 208.5 26.13
12.5 209.5 26.09
11.5 180.5 27.48
11.5 181.5 27.42
11.5 182.5 27.37
11.5 183.5 27.34
11.5 184.5 27.39
11.5 185.5 27.37
11.5 186.5 27.34
11.5 187.5 27.31
11.5 188.5 27.32
11.5 189.5 27.29
11.5 190.5 27.26
11.5 191.5 27.26
11.5 192.5 27.22
11.5 193.5 27.18
11.5 194.5 27.11
11.5 195.5 27.03
11.5 196.5 26.89
11.5 197.5 26.83
11.5 198.5 26.75
11.5 199.5 26.67
11.5 200.5 26.65
11.5 201.5 26.65
11.5 202.5 26.68
11.5 203.5 26.7
11.5 204.5 26.69
11.5 205.5 26.68
11.5 206.5 26.67
11.5 207.5 26.68
11.5 208.5 26.54
11.5 209.5 26.5
10.5 180.5 27.76
10.5 181.5 27.69
10.5 182.5 27.62
10.5 183.5 27.57
10.5 184.5 27.61
10.5 185.5 27.57
10.5 186.5 27.52
10.5 187.5 27.48
10.5 188.5 27.45
10.5 189.5 27.41
10.5 190.5 27.37
10.5 191.5 27.34
10.5 192.5 27.3
10.5 193.5 27.27
10.5 194.5 27.23
10.5 195.5 27.19
10.5 196.5 27.11
10.5 197.5 27.08
10.5 198.5 27.03
10.5 199.5 26.97
10.5 200.5 26.94
10.5 201.5 26.94
10.5 202.5 26.95
10.5 203.5 26.96
10.5 204.5 26.98
10.5 205.5 26.99
10.5 206.5 27.02
10.5 207.5 27.07
10.5 208.5 26.84
10.5 209.5 26.77
