39.5 180.5 14.4
39.5 181.5 14.44
39.5 182.5 14.5
39.5 183.5 14.52
39.5 184.5 14.79
39.5 185.5 14.61
39.5 186.5 14.4
39.5 187.5 14.17
39.5 188.5 13.99
39.5 189.5 14
39.5 190.5 14.1
39.5 191.5 14.12
39.5 192.5 13.81
39.5 193.5 13.86
39.5 194.5 13.99
39.5 195.5 14.02
39.5 196.5 13.6
39.5 197.5 13.52
39.5 198.5 13.52
39.5 199.5 13.54
39.5 200.5 13.47
39.5 201.5 13.53
39.5 202.5 13.62
39.5 203.5 13.77
39.5 204.5 13.98
39.5 205.5 14.15
39.5 206.5 14.36
39.5 207.5 14.66
39.5 208.5 15.1
39.5 209.5 15.3
38.5 180.5 15.49
38.5 181.5 15.58
38.5 182.5 15.64
38.5 183.5 15.66
38.5 184.5 15.92
38.5 185.5 15.76
38.5 186.5 15.58
38.5 187.5 15.36
38.5 188.5 15.11
38.5 189.5 15.12
38.5 190.5 15.22
38.5 191.5 15.22
38.5 192.5 14.72
38.5 193.5 14.68
38.5 194.5 14.78
38.5 195.5 14.78
38.5 196.5 14.29
38.5 197.5 14.19
38.5 198.5 14.2
38.5 199.5 14.25
38.5 200.5 14.32
38.5 201.5 14.42
38.5 202.5 14.54
38.5 203.5 14.7
38.5 204.5 14.96
38.5 205.5 15.16
38.5 206.5 15.38
38.5 207.5 15.66
38.5 208.5 16.07
38.5 209.5 16.23
37.5 180.5 16.53
37.5 181.5 16.63
37.5 182.5 16.68
37.5 183.5 16.66
37.5 184.5 16.85
37.5 185.5 16.7
37.5 186.5 16.56
37.5 187.5 16.36
37.5 188.5 16.05
37.5 189.5 16.02
37.5 190.5 16.11
37.5 191.5 16.09
37.5 192.5 15.46
37.5 193.5 15.37
37.5 194.5 15.43
37.5 195.5 15.45
37.5 196.5 15.05
37.5 197.5 14.99
37.5 198.5 15
37.5 199.5 15.07
37.5 200.5 15.26
37.5 201.5 15.39
37.5 202.5 15.52
37.5 203.5 15.71
37.5 204.5 16.02
37.5 205.5 16.24
37.5 206.5 16.46
37.5 207.5 16.71
37.5 208.5 17.02
37.5 209.5 17.13
36.5 180.5 17.58
36.5 181.5 17.62
36.5 182.5 17.6
36.5 183.5 17.49
36.5 184.5 17.54
36.5 185.5 17.41
36.5 186.5 17.32
36.5 187.5 17.18
36.5 188.5 16.87
36.5 189.5 16.78
36.5 190.5 16.82
36.5 191.5 16.76
36.5 192.5 16.11
36.5 193.5 16.02
36.5 194.5 16.09
36.5 195.5 16.15
36.5 196.5 15.93
36.5 197.5 15.92
36.5 198.5 15.94
36.5 199.5 16.01
36.5 200.5 16.27
36.5 201.5 16.43
36.5 202.5 16.59
36.5 203.5 16.8
36.5 204.5 17.13
36.5 205.5 17.35
36.5 206.5 17.54
36.5 207.5 17.73
36.5 208.5 17.89
36.5 209.5 17.97
35.5 180.5 18.71
35.5 181.5 18.64
35.5 182.5 18.52
35.5 183.5 18.28
35.5 184.5 18.09
35.5 185.5 17.95
35.5 186.5 17.9
35.5 187.5 17.8
35.5 188.5 17.62
35.5 189.5 17.43
35.5 190.5 17.35
35.5 191.5 17.21
35.5 192.5 16.74
35.5 193.5 16.69
35.5 194.5 16.81
35.5 195.5 16.97
35.5 196.5 16.91
35.5 197.5 16.95
35.5 198.5 16.99
35.5 199.5 17.07
35.5 200.5 17.31
35.5 201.5 17.51
35.5 202.5 17.7
35.5 203.5 17.94
35.5 204.5 18.25
35.5 205.5 18.43
35.5 206.5 18.55
35.5 207.5 18.64
35.5 208.5 18.62
35.5 209.5 18.68
34.5 180.5 19.71
34.5 181.5 19.6
34.5 182.5 19.45
34.5 183.5 19.16
34.5 184.5 18.84
34.5 185.5 18.64
34.5 186.5 18.57
34.5 187.5 18.49
34.5 188.5 18.41
34.5 189.5 18.23
34.5 190.5 18.12
34.5 191.5 18
34.5 192.5 17.78
34.5 193.5 17.78
34.5 194.5 17.88
34.5 195.5 18.03
34.5 196.5 17.98
34.5 197.5 18.04
34.5 198.5 18.08
34.5 199.5 18.15
34.5 200.5 18.35
34.5 201.5 18.52
34.5 202.5 18.7
34.5 203.5 18.93
34.5 204.5 19.22
34.5 205.5 19.38
34.5 206.5 19.47
34.5 207.5 19.52
34.5 208.5 19.41
34.5 209.5 19.42
33.5 180.5 20.64
33.5 181.5 20.56
33.5 182.5 20.42
33.5 183.5 20.15
33.5 184.5 19.81
33.5 185.5 19.58
33.5 186.5 19.47
33.5 187.5 19.38
33.5 188.5 19.38
33.5 189.5 19.23
33.5 190.5 19.12
33.5 191.5 19.03
33.5 192.5 19.03
33.5 193.5 19.03
33.5 194.5 19.07
33.5 195.5 19.15
33.5 196.5 19.08
33.5 197.5 19.15
33.5 198.5 19.2
33.5 199.5 19.26
33.5 200.5 19.36
33.5 201.5 19.49
33.5 202.5 19.63
33.5 203.5 19.81
33.5 204.5 20.02
33.5 205.5 20.16
33.5 206.5 20.26
33.5 207.5 20.31
33.5 208.5 20.18
33.5 209.5 20.18
32.5 180.5 21.45
32.5 181.5 21.43
32.5 182.5 21.36
32.5 183.5 21.19
32.5 184.5 20.93
32.5 185.5 20.7
32.5 186.5 20.54
32.5 187.5 20.44
32.5 188.5 20.49
32.5 189.5 20.38
32.5 190.5 20.26
32.5 191.5 20.17
32.5 192.5 20.31
32.5 193.5 20.28
32.5 194.5 20.24
32.5 195.5 20.24
32.5 196.5 20.17
32.5 197.5 20.23
32.5 198.5 20.3
32.5 199.5 20.35
32.5 200.5 20.34
32.5 201.5 20.41
32.5 202.5 20.51
32.5 203.5 20.63
32.5 204.5 20.72
32.5 205.5 20.84
32.5 206.5 20.93
32.5 207.5 21
32.5 208.5 20.93
32.5 209.5 20.93
31.5 180.5 21.97
31.5 181.5 22.05
31.5 182.5 22.12
31.5 183.5 22.14
31.5 184.5 22.12
31.5 185.5 21.94
31.5 186.5 21.74
31.5 187.5 21.59
31.5 188.5 21.61
31.5 189.5 21.49
31.5 190.5 21.35
31.5 191.5 21.24
31.5 192.5 21.39
31.5 193.5 21.35
31.5 194.5 21.28
31.5 195.5 21.24
31.5 196.5 21.19
31.5 197.5 21.19
31.5 198.5 21.2
31.5 199.5 21.2
31.5 200.5 21.13
31.5 201.5 21.19
31.5 202.5 21.28
31.5 203.5 21.38
31.5 204.5 21.46
31.5 205.5 21.5
31.5 206.5 21.55
31.5 207.5 21.61
31.5 208.5 21.64
31.5 209.5 21.66
30.5 180.5 22.48
30.5 181.5 22.6
30.5 182.5 22.74
30.5 183.5 22.87
30.5 184.5 23.05
30.5 185.5 22.96
30.5 186.5 22.78
30.5 187.5 22.61
30.5 188.5 22.56
30.5 189.5 22.42
30.5 190.5 22.26
30.5 191.5 22.15
30.5 192.5 22.32
30.5 193.5 22.28
30.5 194.5 22.19
30.5 195.5 22.12
30.5 196.5 22.09
30.5 197.5 22.04
30.5 198.5 22.01
30.5 199.5 21.97
30.5 200.5 21.94
30.5 201.5 21.98
30.5 202.5 22.04
30.5 203.5 22.12
30.5 204.5 22.18
30.5 205.5 22.19
30.5 206.5 22.2
30.5 207.5 22.25
30.5 208.5 22.33
30.5 209.5 22.35
29.5 180.5 23.09
29.5 181.5 23.19
29.5 182.5 23.35
29.5 183.5 23.53
29.5 184.5 23.76
29.5 185.5 23.73
29.5 186.5 23.58
29.5 187.5 23.38
29.5 188.5 23.23
29.5 189.5 23.05
29.5 190.5 22.9
29.5 191.5 22.83
29.5 192.5 23.02
29.5 193.5 23.01
29.5 194.5 22.94
29.5 195.5 22.87
29.5 196.5 22.87
29.5 197.5 22.79
29.5 198.5 22.73
29.5 199.5 22.67
29.5 200.5 22.71
29.5 201.5 22.73
29.5 202.5 22.77
29.5 203.5 22.82
29.5 204.5 22.89
29.5 205.5 22.85
29.5 206.5 22.83
29.5 207.5 22.85
29.5 208.5 22.94
29.5 209.5 22.95
28.5 180.5 23.75
28.5 181.5 23.81
28.5 182.5 23.96
28.5 183.5 24.11
28.5 184.5 24.23
28.5 185.5 24.2
28.5 186.5 24.05
28.5 187.5 23.85
28.5 188.5 23.61
28.5 189.5 23.42
28.5 190.5 23.31
28.5 191.5 23.29
28.5 192.5 23.49
28.5 193.5 23.54
28.5 194.5 23.52
28.5 195.5 23.48
28.5 196.5 23.52
28.5 197.5 23.43
28.5 198.5 23.34
28.5 199.5 23.27
28.5 200.5 23.39
28.5 201.5 23.41
28.5 202.5 23.45
28.5 203.5 23.49
28.5 204.5 23.55
28.5 205.5 23.48
28.5 206.5 23.41
28.5 207.5 23.38
28.5 208.5 23.42
28.5 209.5 23.42
27.5 180.5 24.46
27.5 181.5 24.48
27.5 182.5 24.58
27.5 183.5 24.65
27.5 184.5 24.57
27.5 185.5 24.5
27.5 186.5 24.38
27.5 187.5 24.2
27.5 188.5 23.9
27.5 189.5 23.76
27.5 190.5 23.72
27.5 191.5 23.77
27.5 192.5 23.93
27.5 193.5 24.01
27.5 194.5 24.03
27.5 195.5 24.03
27.5 196.5 24.09
27.5 197.5 23.96
27.5 198.5 23.82
27.5 199.5 23.72
27.5 200.5 23.9
27.5 201.5 23.97
27.5 202.5 24.04
27.5 203.5 24.12
27.5 204.5 24.16
27.5 205.5 24.04
27.5 206.5 23.91
27.5 207.5 23.83
27.5 208.5 23.81
27.5 209.5 23.82
26.5 180.5 25.19
26.5 181.5 25.18
26.5 182.5 25.24
26.5 183.5 25.23
26.5 184.5 24.98
26.5 185.5 24.88
26.5 186.5 24.76
26.5 187.5 24.61
26.5 188.5 24.35
26.5 189.5 24.26
26.5 190.5 24.26
26.5 191.5 24.32
26.5 192.5 24.39
26.5 193.5 24.44
26.5 194.5 24.47
26.5 195.5 24.47
26.5 196.5 24.51
26.5 197.5 24.4
26.5 198.5 24.27
26.5 199.5 24.19
26.5 200.5 24.37
26.5 201.5 24.43
26.5 202.5 24.47
26.5 203.5 24.53
26.5 204.5 24.61
26.5 205.5 24.49
26.5 206.5 24.33
26.5 207.5 24.22
26.5 208.5 24.19
26.5 209.5 24.18
25.5 180.5 25.79
25.5 181.5 25.78
25.5 182.5 25.78
25.5 183.5 25.72
25.5 184.5 25.41
25.5 185.5 25.3
25.5 186.5 25.2
25.5 187.5 25.07
25.5 188.5 24.85
25.5 189.5 24.8
25.5 190.5 24.81
25.5 191.5 24.85
25.5 192.5 24.82
25.5 193.5 24.83
25.5 194.5 24.83
25.5 195.5 24.82
25.5 196.5 24.81
25.5 197.5 24.72
25.5 198.5 24.62
25.5 199.5 24.57
25.5 200.5 24.72
25.5 201.5 24.75
25.5 202.5 24.76
25.5 203.5 24.8
25.5 204.5 24.94
25.5 205.5 24.82
25.5 206.5 24.65
25.5 207.5 24.52
25.5 208.5 24.53
25.5 209.5 24.5
24.5 180.5 26.17
24.5 181.5 26.16
24.5 182.5 26.15
24.5 183.5 26.05
24.5 184.5 25.74
24.5 185.5 25.63
24.5 186.5 25.55
24.5 187.5 25.45
24.5 188.5 25.28
24.5 189.5 25.25
24.5 190.5 25.27
24.5 191.5 25.28
24.5 192.5 25.19
24.5 193.5 25.14
24.5 194.5 25.12
24.5 195.5 25.1
24.5 196.5 25.06
24.5 197.5 25.01
24.5 198.5 24.93
24.5 199.5 24.89
24.5 200.5 24.99
24.5 201.5 25
24.5 202.5 24.97
24.5 203.5 24.97
24.5 204.5 25.12
24.5 205.5 25.01
24.5 206.5 24.84
24.5 207.5 24.73
24.5 208.5 24.77
24.5 209.5 24.73
23.5 180.5 26.34
23.5 181.5 26.37
23.5 182.5 26.35
23.5 183.5 26.24
23.5 184.5 25.88
23.5 185.5 25.76
23.5 186.5 25.69
23.5 187.5 25.66
23.5 188.5 25.53
23.5 189.5 25.53
23.5 190.5 25.54
23.5 191.5 25.53
23.5 192.5 25.47
23.5 193.5 25.44
23.5 194.5 25.41
23.5 195.5 25.41
23.5 196.5 25.43
23.5 197.5 25.37
23.5 198.5 25.27
23.5 199.5 25.2
23.5 200.5 25.26
23.5 201.5 25.24
23.5 202.5 25.18
23.5 203.5 25.13
23.5 204.5 25.21
23.5 205.5 25.12
23.5 206.5 25
23.5 207.5 24.93
23.5 208.5 25
23.5 209.5 24.95
22.5 180.5 26.4
22.5 181.5 26.42
22.5 182.5 26.39
22.5 183.5 26.26
22.5 184.5 25.97
22.5 185.5 25.83
22.5 186.5 25.75
22.5 187.5 25.73
22.5 188.5 25.65
22.5 189.5 25.66
22.5 190.5 25.68
22.5 191.5 25.69
22.5 192.5 25.68
22.5 193.5 25.68
22.5 194.5 25.67
22.5 195.5 25.7
22.5 196.5 25.83
22.5 197.5 25.81
22.5 198.5 25.72
22.5 199.5 25.65
22.5 200.5 25.66
22.5 201.5 25.59
22.5 202.5 25.48
22.5 203.5 25.36
22.5 204.5 25.36
22.5 205.5 25.25
22.5 206.5 25.15
22.5 207.5 25.1
22.5 208.5 25.18
22.5 209.5 25.11
21.5 180.5 26.48
21.5 181.5 26.49
21.5 182.5 26.44
21.5 183.5 26.29
21.5 184.5 26.12
21.5 185.5 25.97
21.5 186.5 25.89
21.5 187.5 25.9
21.5 188.5 25.89
21.5 189.5 25.93
21.5 190.5 25.98
21.5 191.5 26.01
21.5 192.5 26.02
21.5 193.5 26.04
21.5 194.5 26.02
21.5 195.5 26.06
21.5 196.5 26.22
21.5 197.5 26.21
21.5 198.5 26.14
21.5 199.5 26.07
21.5 200.5 26.07
21.5 201.5 25.96
21.5 202.5 25.81
21.5 203.5 25.65
21.5 204.5 25.57
21.5 205.5 25.46
21.5 206.5 25.35
21.5 207.5 25.3
21.5 208.5 25.33
21.5 209.5 25.24
20.5 180.5 26.68
20.5 181.5 26.67
20.5 182.5 26.59
20.5 183.5 26.44
20.5 184.5 26.35
20.5 185.5 26.23
20.5 186.5 26.17
20.5 187.5 26.21
20.5 188.5 26.31
20.5 189.5 26.37
20.5 190.5 26.43
20.5 191.5 26.47
20.5 192.5 26.44
20.5 193.5 26.45
20.5 194.5 26.41
20.5 195.5 26.41
20.5 196.5 26.53
20.5 197.5 26.5
20.5 198.5 26.43
20.5 199.5 26.36
20.5 200.5 26.38
20.5 201.5 26.27
20.5 202.5 26.11
20.5 203.5 25.94
20.5 204.5 25.82
20.5 205.5 25.69
20.5 206.5 25.58
20.5 207.5 25.49
20.5 208.5 25.41
20.5 209.5 25.27
19.5 180.5 26.98
19.5 181.5 26.97
19.5 182.5 26.89
19.5 183.5 26.77
19.5 184.5 26.66
19.5 185.5 26.58
19.5 186.5 26.55
19.5 187.5 26.62
19.5 188.5 26.76
19.5 189.5 26.82
19.5 190.5 26.87
19.5 191.5 26.87
19.5 192.5 26.81
19.5 193.5 26.78
19.5 194.5 26.71
19.5 195.5 26.66
19.5 196.5 26.67
19.5 197.5 26.58
19.5 198.5 26.48
19.5 199.5 26.42
19.5 200.5 26.5
19.5 201.5 26.42
19.5 202.5 26.29
19.5 203.5 26.16
19.5 204.5 26.03
19.5 205.5 25.89
19.5 206.5 25.75
19.5 207.5 25.62
19.5 208.5 25.41
19.5 209.5 25.22
18.5 180.5 27.22
18.5 181.5 27.19
18.5 182.5 27.1
18.5 183.5 27
18.5 184.5 26.92
18.5 185.5 26.87
18.5 186.5 26.87
18.5 187.5 26.95
18.5 188.5 27.09
18.5 189.5 27.14
18.5 190.5 27.15
18.5 191.5 27.11
18.5 192.5 26.99
18.5 193.5 26.9
18.5 194.5 26.8
18.5 195.5 26.68
18.5 196.5 26.58
18.5 197.5 26.46
18.5 198.5 26.37
18.5 199.5 26.33
18.5 200.5 26.4
18.5 201.5 26.34
18.5 202.5 26.25
18.5 203.5 26.15
18.5 204.5 26.01
18.5 205.5 25.86
18.5 206.5 25.72
18.5 207.5 25.57
18.5 208.5 25.32
18.5 209.5 25.12
17.5 180.5 27.39
17.5 181.5 27.34
17.5 182.5 27.26
17.5 183.5 27.17
17.5 184.5 27.1
17.5 185.5 27.08
17.5 186.5 27.1
17.5 187.5 27.16
17.5 188.5 27.25
17.5 189.5 27.26
17.5 190.5 27.23
17.5 191.5 27.14
17.5 192.5 26.99
17.5 193.5 26.86
17.5 194.5 26.73
17.5 195.5 26.58
17.5 196.5 26.43
17.5 197.5 26.31
17.5 198.5 26.24
17.5 199.5 26.21
17.5 200.5 26.22
17.5 201.5 26.17
17.5 202.5 26.11
17.5 203.5 26.04
17.5 204.5 25.9
17.5 205.5 25.76
17.5 206.5 25.62
17.5 207.5 25.49
17.5 208.5 25.29
17.5 209.5 25.14
16.5 180.5 27.49
16.5 181.5 27.43
16.5 182.5 27.35
16.5 183.5 27.28
16.5 184.5 27.23
16.5 185.5 27.21
16.5 186.5 27.22
16.5 187.5 27.25
16.5 188.5 27.27
16.5 189.5 27.23
16.5 190.5 27.16
16.5 191.5 27.06
16.5 192.5 26.9
16.5 193.5 26.75
16.5 194.5 26.61
16.5 195.5 26.47
16.5 196.5 26.34
16.5 197.5 26.25
16.5 198.5 26.2
16.5 199.5 26.17
16.5 200.5 26.14
16.5 201.5 26.08
16.5 202.5 26.04
16.5 203.5 25.98
16.5 204.5 25.82
16.5 205.5 25.7
16.5 206.5 25.59
16.5 207.5 25.5
16.5 208.5 25.42
16.5 209.5 25.34
15.5 180.5 27.55
15.5 181.5 27.46
15.5 182.5 27.4
15.5 183.5 27.35
15.5 184.5 27.32
15.5 185.5 27.3
15.5 186.5 27.3
15.5 187.5 27.3
15.5 188.5 27.25
15.5 189.5 27.19
15.5 190.5 27.1
15.5 191.5 26.99
15.5 192.5 26.8
15.5 193.5 26.65
15.5 194.5 26.53
15.5 195.5 26.44
15.5 196.5 26.36
15.5 197.5 26.29
15.5 198.5 26.25
15.5 199.5 26.22
15.5 200.5 26.2
15.5 201.5 26.16
15.5 202.5 26.13
15.5 203.5 26.06
15.5 204.5 25.88
15.5 205.5 25.79
15.5 206.5 25.73
15.5 207.5 25.72
15.5 208.5 25.74
15.5 209.5 25.74
14.5 180.5 27.69
14.5 181.5 27.6
14.5 182.5 27.53
14.5 183.5 27.47
14.5 184.5 27.39
14.5 185.5 27.37
14.5 186.5 27.37
14.5 187.5 27.36
14.5 188.5 27.31
14.5 189.5 27.23
14.5 190.5 27.14
14.5 191.5 27.03
14.5 192.5 26.83
14.5 193.5 26.69
14.5 194.5 26.59
14.5 195.5 26.52
14.5 196.5 26.45
14.5 197.5 26.39
14.5 198.5 26.35
14.5 199.5 26.32
14.5 200.5 26.29
14.5 201.5 26.27
14.5 202.5 26.24
14.5 203.5 26.19
14.5 204.5 26.05
14.5 205.5 25.96
14.5 206.5 25.89
14.5 207.5 25.88
14.5 208.5 25.96
14.5 209.5 25.99
13.5 180.5 27.85
13.5 181.5 27.76
13.5 182.5 27.7
13.5 183.5 27.63
13.5 184.5 27.51
13.5 185.5 27.48
13.5 186.5 27.48
13.5 187.5 27.48
13.5 188.5 27.43
13.5 189.5 27.36
13.5 190.5 27.27
13.5 191.5 27.15
13.5 192.5 26.96
13.5 193.5 26.84
13.5 194.5 26.75
13.5 195.5 26.69
13.5 196.5 26.61
13.5 197.5 26.54
13.5 198.5 26.49
13.5 199.5 26.45
13.5 200.5 26.38
13.5 201.5 26.37
13.5 202.5 26.35
13.5 203.5 26.32
13.5 204.5 26.27
13.5 205.5 26.16
13.5 206.5 26.05
13.5 207.5 26
13.5 208.5 26.06
13.5 209.5 26.09
12.5 180.5 28.03
12.5 181.5 27.94
12.5 182.5 27.89
12.5 183.5 27.82
12.5 184.5 27.68
12.5 185.5 27.65
12.5 186.5 27.65
12.5 187.5 27.66
12.5 188.5 27.61
12.5 189.5 27.54
12.5 190.5 27.45
12.5 191.5 27.33
12.5 192.5 27.15
12.5 193.5 27.05
12.5 194.5 26.98
12.5 195.5 26.95
12.5 196.5 26.87
12.5 197.5 26.78
12.5 198.5 26.71
12.5 199.5 26.64
12.5 200.5 26.55
12.5 201.5 26.53
12.5 202.5 26.52
12.5 203.5 26.51
12.5 204.5 26.5
12.5 205.5 26.36
12.5 206.5 26.2
12.5 207.5 26.09
12.5 208.5 26.09
12.5 209.5 26.08
11.5 180.5 28.18
11.5 181.5 28.14
11.5 182.5 28.11
11.5 183.5 28.05
11.5 184.5 27.89
11.5 185.5 27.87
11.5 186.5 27.89
11.5 187.5 27.91
11.5 188.5 27.85
11.5 189.5 27.78
11.5 190.5 27.68
11.5 191.5 27.55
11.5 192.5 27.37
11.5 193.5 27.28
11.5 194.5 27.24
11.5 195.5 27.25
11.5 196.5 27.24
11.5 197.5 27.16
11.5 198.5 27.07
11.5 199.5 26.97
11.5 200.5 26.89
11.5 201.5 26.87
11.5 202.5 26.85
11.5 203.5 26.84
11.5 204.5 26.79
11.5 205.5 26.62
11.5 206.5 26.41
11.5 207.5 26.22
11.5 208.5 26.14
11.5 209.5 26.11
10.5 180.5 28.33
10.5 181.5 28.31
10.5 182.5 28.31
10.5 183.5 28.28
10.5 184.5 28.15
10.5 185.5 28.15
10.5 186.5 28.17
10.5 187.5 28.21
10.5 188.5 28.12
10.5 189.5 28.05
10.5 190.5 27.94
10.5 191.5 27.82
10.5 192.5 27.67
10.5 193.5 27.6
10.5 194.5 27.58
10.5 195.5 27.62
10.5 196.5 27.7
10.5 197.5 27.67
10.5 198.5 27.59
10.5 199.5 27.5
10.5 200.5 27.45
10.5 201.5 27.42
10.5 202.5 27.4
10.5 203.5 27.37
10.5 204.5 27.28
10.5 205.5 27.07
10.5 206.5 26.83
10.5 207.5 26.6
10.5 208.5 26.55
10.5 209.5 26.53
