-24.5 12.5 14.88
-25.5 12.5 15.1
-26.5 12.5 15.47
-27.5 12.5 15.89
-28.5 12.5 16.28
-29.5 12.5 16.42
-30.5 12.5 16.4
-31.5 12.5 16.37
-32.5 12.5 16.29
-33.5 12.5 16.11
-34.5 12.5 15.83
-35.5 12.5 15.64
-36.5 12.5 15.8
-37.5 12.5 15.65
-38.5 12.5 15.16
-39.5 12.5 14.26
-40.5 12.5 13.02
-41.5 12.5 11.45
-42.5 12.5 10.01
-43.5 12.5 8.91
-44.5 12.5 7.92
-45.5 12.5 7
-46.5 12.5 6.01
-47.5 12.5 4.8
-48.5 12.5 3.45
-49.5 12.5 2.45
-50.5 12.5 1.62
-51.5 12.5 0.83
-24.5 13.5 13.73
-25.5 13.5 14.03
-26.5 13.5 14.47
-27.5 13.5 14.98
-28.5 13.5 15.64
-29.5 13.5 16.01
-30.5 13.5 16.21
-31.5 13.5 16.3
-32.5 13.5 16.29
-33.5 13.5 16.07
-34.5 13.5 15.8
-35.5 13.5 15.64
-36.5 13.5 16.02
-37.5 13.5 15.99
-38.5 13.5 15.55
-39.5 13.5 14.66
-40.5 13.5 13.52
-41.5 13.5 11.94
-42.5 13.5 10.45
-43.5 13.5 9.29
-44.5 13.5 8.16
-45.5 13.5 7.11
-46.5 13.5 6.04
-47.5 13.5 4.8
-48.5 13.5 3.41
-49.5 13.5 2.45
-50.5 13.5 1.64
-51.5 13.5 0.83
-24.5 14.5 12.9
-25.5 14.5 13.22
-26.5 14.5 13.65
-27.5 14.5 14.05
-28.5 14.5 14.88
-29.5 14.5 15.4
-30.5 14.5 15.8
-31.5 14.5 16.13
-32.5 14.5 16.35
-33.5 14.5 16.23
-34.5 14.5 15.99
-35.5 14.5 15.89
-36.5 14.5 16.4
-37.5 14.5 16.46
-38.5 14.5 16.05
-39.5 14.5 15.15
-40.5 14.5 14.05
-41.5 14.5 12.42
-42.5 14.5 10.85
-43.5 14.5 9.62
-44.5 14.5 8.44
-45.5 14.5 7.28
-46.5 14.5 6.13
-47.5 14.5 4.84
-48.5 14.5 3.45
-49.5 14.5 2.53
-50.5 14.5 1.74
-51.5 14.5 0.9
-24.5 15.5 13.1
-25.5 15.5 13.39
-26.5 15.5 13.58
-27.5 15.5 13.44
-28.5 15.5 14.07
-29.5 15.5 14.6
-30.5 15.5 15.11
-31.5 15.5 15.67
-32.5 15.5 16.23
-33.5 15.5 16.34
-34.5 15.5 16.23
-35.5 15.5 16.26
-36.5 15.5 16.84
-37.5 15.5 16.92
-38.5 15.5 16.45
-39.5 15.5 15.44
-40.5 15.5 14.28
-41.5 15.5 12.56
-42.5 15.5 10.94
-43.5 15.5 9.72
-44.5 15.5 8.59
-45.5 15.5 7.34
-46.5 15.5 6.1
-47.5 15.5 4.8
-48.5 15.5 3.49
-49.5 15.5 2.64
-50.5 15.5 1.87
-51.5 15.5 1.03
-28.5 16.5 13.23
-29.5 16.5 13.59
-30.5 16.5 13.92
-31.5 16.5 14.64
-32.5 16.5 15.51
-33.5 16.5 15.89
-34.5 16.5 16.05
-35.5 16.5 16.31
-36.5 16.5 17.13
-37.5 16.5 17.31
-38.5 16.5 16.75
-39.5 16.5 15.5
-40.5 16.5 14.3
-41.5 16.5 12.39
-42.5 16.5 10.68
-43.5 16.5 9.45
-44.5 16.5 8.46
-45.5 16.5 7.09
-46.5 16.5 5.76
-47.5 16.5 4.53
-48.5 16.5 3.39
-49.5 16.5 2.7
-50.5 16.5 2
-51.5 16.5 1.19
-29.5 17.5 13.5
-30.5 17.5 13.21
-31.5 17.5 13.85
-32.5 17.5 14.72
-33.5 17.5 15.22
-34.5 17.5 15.61
-35.5 17.5 16.2
-36.5 17.5 17.35
-37.5 17.5 17.71
-38.5 17.5 17.15
-39.5 17.5 15.85
-40.5 17.5 14.55
-41.5 17.5 12.51
-42.5 17.5 10.72
-43.5 17.5 9.46
-44.5 17.5 8.5
-45.5 17.5 7.05
-46.5 17.5 5.63
-47.5 17.5 4.4
-48.5 17.5 3.39
-49.5 17.5 2.74
-50.5 17.5 2.05
-51.5 17.5 1.22
-31.5 18.5 14.13
-32.5 18.5 14.35
-33.5 18.5 14.68
-34.5 18.5 15.11
-35.5 18.5 15.94
-36.5 18.5 17.45
-37.5 18.5 18.05
-38.5 18.5 17.63
-39.5 18.5 16.38
-40.5 18.5 15.07
-41.5 18.5 12.99
-42.5 18.5 11.11
-43.5 18.5 9.75
-44.5 18.5 8.71
-45.5 18.5 7.18
-46.5 18.5 5.67
-47.5 18.5 4.39
-48.5 18.5 3.39
-49.5 18.5 2.72
-50.5 18.5 2.01
-51.5 18.5 1.19
-33.5 19.5 14.82
-34.5 19.5 14.88
-35.5 19.5 15.82
-36.5 19.5 17.59
-37.5 19.5 18.38
-38.5 19.5 18.1
-39.5 19.5 16.97
-40.5 19.5 15.72
-41.5 19.5 13.67
-42.5 19.5 11.7
-43.5 19.5 10.18
-44.5 19.5 8.94
-45.5 19.5 7.32
-46.5 19.5 5.73
-47.5 19.5 4.39
-48.5 19.5 3.32
-49.5 19.5 2.58
-50.5 19.5 1.83
-51.5 19.5 1.04
-35.5 20.5 16.17
-36.5 20.5 17.98
-37.5 20.5 18.8
-38.5 20.5 18.55
-39.5 20.5 17.52
-40.5 20.5 16.3
-41.5 20.5 14.33
-42.5 20.5 12.32
-43.5 20.5 10.56
-44.5 20.5 9.04
-45.5 20.5 7.43
-46.5 20.5 5.89
-47.5 20.5 4.47
-48.5 20.5 3.1
-49.5 20.5 2.18
-50.5 20.5 1.41
-51.5 20.5 0.74
-35.5 21.5 17
-36.5 21.5 18.56
-37.5 21.5 19.25
-38.5 21.5 18.93
-39.5 21.5 17.8
-40.5 21.5 16.3
-41.5 21.5 14.39
-42.5 21.5 12.41
-43.5 21.5 10.56
-44.5 21.5 8.83
-45.5 21.5 7.27
-46.5 21.5 5.87
-47.5 21.5 4.53
-48.5 21.5 3.12
-49.5 21.5 2.14
-50.5 21.5 1.35
-51.5 21.5 0.67
