-24.5 12.5 17.21
-25.5 12.5 17.43
-26.5 12.5 17.79
-27.5 12.5 18.25
-28.5 12.5 18.75
-29.5 12.5 18.82
-30.5 12.5 18.71
-31.5 12.5 18.65
-32.5 12.5 18.97
-33.5 12.5 19.12
-34.5 12.5 19.01
-35.5 12.5 18.78
-36.5 12.5 19
-37.5 12.5 18.8
-38.5 12.5 18.31
-39.5 12.5 17.42
-40.5 12.5 15.91
-41.5 12.5 13.82
-42.5 12.5 11.8
-43.5 12.5 10.21
-44.5 12.5 8.97
-45.5 12.5 8.35
-46.5 12.5 7.73
-47.5 12.5 6.78
-48.5 12.5 5.36
-49.5 12.5 4.25
-50.5 12.5 3.22
-51.5 12.5 2.25
-24.5 13.5 15.9
-25.5 13.5 16.17
-26.5 13.5 16.61
-27.5 13.5 17.21
-28.5 13.5 18.01
-29.5 13.5 18.37
-30.5 13.5 18.53
-31.5 13.5 18.71
-32.5 13.5 19.13
-33.5 13.5 19.35
-34.5 13.5 19.22
-35.5 13.5 18.98
-36.5 13.5 19.27
-37.5 13.5 19.07
-38.5 13.5 18.54
-39.5 13.5 17.6
-40.5 13.5 16.19
-41.5 13.5 14.05
-42.5 13.5 11.98
-43.5 13.5 10.37
-44.5 13.5 9.08
-45.5 13.5 8.43
-46.5 13.5 7.76
-47.5 13.5 6.79
-48.5 13.5 5.42
-49.5 13.5 4.32
-50.5 13.5 3.29
-51.5 13.5 2.3
-24.5 14.5 14.96
-25.5 14.5 15.22
-26.5 14.5 15.64
-27.5 14.5 16.11
-28.5 14.5 17.02
-29.5 14.5 17.55
-30.5 14.5 17.96
-31.5 14.5 18.43
-32.5 14.5 19.06
-33.5 14.5 19.39
-34.5 14.5 19.34
-35.5 14.5 19.14
-36.5 14.5 19.46
-37.5 14.5 19.3
-38.5 14.5 18.73
-39.5 14.5 17.79
-40.5 14.5 16.52
-41.5 14.5 14.38
-42.5 14.5 12.28
-43.5 14.5 10.67
-44.5 14.5 9.37
-45.5 14.5 8.66
-46.5 14.5 7.9
-47.5 14.5 6.87
-48.5 14.5 5.52
-49.5 14.5 4.43
-50.5 14.5 3.41
-51.5 14.5 2.39
-24.5 15.5 15.16
-25.5 15.5 15.39
-26.5 15.5 15.55
-27.5 15.5 15.36
-28.5 15.5 15.97
-29.5 15.5 16.47
-30.5 15.5 16.96
-31.5 15.5 17.63
-32.5 15.5 18.53
-33.5 15.5 19.02
-34.5 15.5 19.1
-35.5 15.5 19.05
-36.5 15.5 19.47
-37.5 15.5 19.42
-38.5 15.5 18.86
-39.5 15.5 17.9
-40.5 15.5 16.76
-41.5 15.5 14.65
-42.5 15.5 12.58
-43.5 15.5 11
-44.5 15.5 9.76
-45.5 15.5 8.94
-46.5 15.5 8.04
-47.5 15.5 6.93
-48.5 15.5 5.6
-49.5 15.5 4.52
-50.5 15.5 3.49
-51.5 15.5 2.47
-28.5 16.5 14.93
-29.5 16.5 15.27
-30.5 16.5 15.55
-31.5 16.5 16.34
-32.5 16.5 17.47
-33.5 16.5 18.11
-34.5 16.5 18.4
-35.5 16.5 18.64
-36.5 16.5 19.38
-37.5 16.5 19.54
-38.5 16.5 19
-39.5 16.5 17.94
-40.5 16.5 16.76
-41.5 16.5 14.64
-42.5 16.5 12.63
-43.5 16.5 11.15
-44.5 16.5 10.05
-45.5 16.5 9.04
-46.5 16.5 7.98
-47.5 16.5 6.83
-48.5 16.5 5.63
-49.5 16.5 4.67
-50.5 16.5 3.72
-51.5 16.5 2.74
-29.5 17.5 15.08
-30.5 17.5 14.64
-31.5 17.5 15.27
-32.5 17.5 16.44
-33.5 17.5 17.13
-34.5 17.5 17.67
-35.5 17.5 18.28
-36.5 17.5 19.39
-37.5 17.5 19.75
-38.5 17.5 19.27
-39.5 17.5 18.14
-40.5 17.5 16.86
-41.5 17.5 14.72
-42.5 17.5 12.72
-43.5 17.5 11.27
-44.5 17.5 10.32
-45.5 17.5 9.22
-46.5 17.5 8.04
-47.5 17.5 6.82
-48.5 17.5 5.62
-49.5 17.5 4.68
-50.5 17.5 3.74
-51.5 17.5 2.76
-31.5 18.5 15.72
-32.5 18.5 16.12
-33.5 18.5 16.52
-34.5 18.5 17.1
-35.5 18.5 17.98
-36.5 18.5 19.4
-37.5 18.5 19.97
-38.5 18.5 19.56
-39.5 18.5 18.4
-40.5 18.5 17.01
-41.5 18.5 14.83
-42.5 18.5 12.79
-43.5 18.5 11.28
-44.5 18.5 10.41
-45.5 18.5 9.23
-46.5 18.5 7.98
-47.5 18.5 6.75
-48.5 18.5 5.55
-49.5 18.5 4.6
-50.5 18.5 3.68
-51.5 18.5 2.72
-33.5 19.5 16.78
-34.5 19.5 17
-35.5 19.5 18
-36.5 19.5 19.71
-37.5 19.5 20.46
-38.5 19.5 20.12
-39.5 19.5 18.92
-40.5 19.5 17.37
-41.5 19.5 15.14
-42.5 19.5 13.01
-43.5 19.5 11.33
-44.5 19.5 10.39
-45.5 19.5 9.12
-46.5 19.5 7.84
-47.5 19.5 6.62
-48.5 19.5 5.46
-49.5 19.5 4.5
-50.5 19.5 3.54
-51.5 19.5 2.62
-35.5 20.5 18.48
-36.5 20.5 20.6
-37.5 20.5 21.53
-38.5 20.5 21.17
-39.5 20.5 19.85
-40.5 20.5 18.26
-41.5 20.5 16.04
-42.5 20.5 13.83
-43.5 20.5 11.91
-44.5 20.5 10.39
-45.5 20.5 9.03
-46.5 20.5 7.77
-47.5 20.5 6.57
-48.5 20.5 5.28
-49.5 20.5 4.25
-50.5 20.5 3.27
-51.5 20.5 2.41
-35.5 21.5 19.29
-36.5 21.5 21.22
-37.5 21.5 21.98
-38.5 21.5 21.5
-39.5 21.5 20.04
-40.5 21.5 18.25
-41.5 21.5 16.09
-42.5 21.5 13.93
-43.5 21.5 11.93
-44.5 21.5 10.14
-45.5 21.5 8.75
-46.5 21.5 7.59
-47.5 21.5 6.5
-48.5 21.5 5.23
-49.5 21.5 4.18
-50.5 21.5 3.16
-51.5 21.5 2.28
