-24.5 12.5 15.28
-25.5 12.5 15.43
-26.5 12.5 15.69
-27.5 12.5 15.97
-28.5 12.5 16.18
-29.5 12.5 16.13
-30.5 12.5 15.97
-31.5 12.5 15.73
-32.5 12.5 15.53
-33.5 12.5 15.27
-34.5 12.5 14.98
-35.5 12.5 14.82
-36.5 12.5 14.89
-37.5 12.5 14.64
-38.5 12.5 14.06
-39.5 12.5 13.14
-40.5 12.5 12
-41.5 12.5 10.73
-42.5 12.5 9.58
-43.5 12.5 8.62
-44.5 12.5 7.58
-45.5 12.5 6.58
-46.5 12.5 5.61
-47.5 12.5 4.55
-48.5 12.5 3.35
-49.5 12.5 2.5
-50.5 12.5 1.74
-51.5 12.5 0.93
-24.5 13.5 14.19
-25.5 13.5 14.47
-26.5 13.5 14.83
-27.5 13.5 15.25
-28.5 13.5 15.72
-29.5 13.5 15.88
-30.5 13.5 15.84
-31.5 13.5 15.72
-32.5 13.5 15.47
-33.5 13.5 15.14
-34.5 13.5 14.82
-35.5 13.5 14.72
-36.5 13.5 14.97
-37.5 13.5 14.89
-38.5 13.5 14.41
-39.5 13.5 13.56
-40.5 13.5 12.55
-41.5 13.5 11.28
-42.5 13.5 10.11
-43.5 13.5 9.09
-44.5 13.5 7.86
-45.5 13.5 6.73
-46.5 13.5 5.67
-47.5 13.5 4.56
-48.5 13.5 3.33
-49.5 13.5 2.52
-50.5 13.5 1.77
-51.5 13.5 0.93
-24.5 14.5 13.38
-25.5 14.5 13.72
-26.5 14.5 14.13
-27.5 14.5 14.5
-28.5 14.5 15.14
-29.5 14.5 15.44
-30.5 14.5 15.58
-31.5 14.5 15.63
-32.5 14.5 15.5
-33.5 14.5 15.23
-34.5 14.5 14.94
-35.5 14.5 14.88
-36.5 14.5 15.22
-37.5 14.5 15.23
-38.5 14.5 14.81
-39.5 14.5 13.98
-40.5 14.5 13.08
-41.5 14.5 11.77
-42.5 14.5 10.54
-43.5 14.5 9.48
-44.5 14.5 8.15
-45.5 14.5 6.94
-46.5 14.5 5.8
-47.5 14.5 4.65
-48.5 14.5 3.39
-49.5 14.5 2.62
-50.5 14.5 1.89
-51.5 14.5 1.01
-24.5 15.5 13.55
-25.5 15.5 13.85
-26.5 15.5 14.11
-27.5 15.5 14.07
-28.5 15.5 14.53
-29.5 15.5 14.82
-30.5 15.5 15.05
-31.5 15.5 15.3
-32.5 15.5 15.41
-33.5 15.5 15.3
-34.5 15.5 15.1
-35.5 15.5 15.1
-36.5 15.5 15.53
-37.5 15.5 15.63
-38.5 15.5 15.22
-39.5 15.5 14.35
-40.5 15.5 13.48
-41.5 15.5 12.07
-42.5 15.5 10.75
-43.5 15.5 9.65
-44.5 15.5 8.33
-45.5 15.5 7.06
-46.5 15.5 5.86
-47.5 15.5 4.71
-48.5 15.5 3.47
-49.5 15.5 2.74
-50.5 15.5 2.02
-51.5 15.5 1.13
-28.5 16.5 13.84
-29.5 16.5 13.98
-30.5 16.5 14.11
-31.5 16.5 14.49
-32.5 16.5 14.93
-33.5 16.5 14.97
-34.5 16.5 14.88
-35.5 16.5 14.97
-36.5 16.5 15.64
-37.5 16.5 15.9
-38.5 16.5 15.55
-39.5 16.5 14.67
-40.5 16.5 13.84
-41.5 16.5 12.2
-42.5 16.5 10.68
-43.5 16.5 9.55
-44.5 16.5 8.34
-45.5 16.5 7.06
-46.5 16.5 5.81
-47.5 16.5 4.65
-48.5 16.5 3.49
-49.5 16.5 2.82
-50.5 16.5 2.12
-51.5 16.5 1.22
-29.5 17.5 13.86
-30.5 17.5 13.49
-31.5 17.5 13.81
-32.5 17.5 14.35
-33.5 17.5 14.47
-34.5 17.5 14.51
-35.5 17.5 14.84
-36.5 17.5 15.9
-37.5 17.5 16.38
-38.5 17.5 16.1
-39.5 17.5 15.15
-40.5 17.5 14.24
-41.5 17.5 12.37
-42.5 17.5 10.64
-43.5 17.5 9.4
-44.5 17.5 8.27
-45.5 17.5 6.97
-46.5 17.5 5.71
-47.5 17.5 4.56
-48.5 17.5 3.49
-49.5 17.5 2.85
-50.5 17.5 2.16
-51.5 17.5 1.24
-31.5 18.5 14.02
-32.5 18.5 14.1
-33.5 18.5 14.11
-34.5 18.5 14.21
-35.5 18.5 14.76
-36.5 18.5 16.19
-37.5 18.5 16.88
-38.5 18.5 16.71
-39.5 18.5 15.77
-40.5 18.5 14.77
-41.5 18.5 12.74
-42.5 18.5 10.82
-43.5 18.5 9.42
-44.5 18.5 8.3
-45.5 18.5 6.96
-46.5 18.5 5.67
-47.5 18.5 4.51
-48.5 18.5 3.47
-49.5 18.5 2.81
-50.5 18.5 2.1
-51.5 18.5 1.2
-33.5 19.5 14.24
-34.5 19.5 14.17
-35.5 19.5 14.89
-36.5 19.5 16.55
-37.5 19.5 17.44
-38.5 19.5 17.35
-39.5 19.5 16.43
-40.5 19.5 15.32
-41.5 19.5 13.21
-42.5 19.5 11.13
-43.5 19.5 9.53
-44.5 19.5 8.38
-45.5 19.5 7
-46.5 19.5 5.65
-47.5 19.5 4.47
-48.5 19.5 3.39
-49.5 19.5 2.64
-50.5 19.5 1.89
-51.5 19.5 1.05
-35.5 20.5 15.53
-36.5 20.5 17.13
-37.5 20.5 17.88
-38.5 20.5 17.68
-39.5 20.5 16.67
-40.5 20.5 15.47
-41.5 20.5 13.42
-42.5 20.5 11.35
-43.5 20.5 9.64
-44.5 20.5 8.38
-45.5 20.5 7.02
-46.5 20.5 5.71
-47.5 20.5 4.43
-48.5 20.5 3.12
-49.5 20.5 2.2
-50.5 20.5 1.39
-51.5 20.5 0.69
-35.5 21.5 16.54
-36.5 21.5 17.84
-37.5 21.5 18.38
-38.5 21.5 18
-39.5 21.5 16.81
-40.5 21.5 15.22
-41.5 21.5 13.22
-42.5 21.5 11.24
-43.5 21.5 9.53
-44.5 21.5 8.16
-45.5 21.5 6.83
-46.5 21.5 5.6
-47.5 21.5 4.38
-48.5 21.5 3.03
-49.5 21.5 2.04
-50.5 21.5 1.22
-51.5 21.5 0.55
