-24.5 12.5 14.63
-25.5 12.5 14.81
-26.5 12.5 15.16
-27.5 12.5 15.59
-28.5 12.5 16.03
-29.5 12.5 16.21
-30.5 12.5 16.23
-31.5 12.5 16.21
-32.5 12.5 16.07
-33.5 12.5 15.89
-34.5 12.5 15.64
-35.5 12.5 15.52
-36.5 12.5 15.68
-37.5 12.5 15.63
-38.5 12.5 15.22
-39.5 12.5 14.39
-40.5 12.5 13.22
-41.5 12.5 11.77
-42.5 12.5 10.4
-43.5 12.5 9.27
-44.5 12.5 8.03
-45.5 12.5 7
-46.5 12.5 5.94
-47.5 12.5 4.76
-48.5 12.5 3.51
-49.5 12.5 2.6
-50.5 12.5 1.78
-51.5 12.5 0.98
-24.5 13.5 13.47
-25.5 13.5 13.72
-26.5 13.5 14.14
-27.5 13.5 14.67
-28.5 13.5 15.36
-29.5 13.5 15.75
-30.5 13.5 15.97
-31.5 13.5 16.07
-32.5 13.5 15.99
-33.5 13.5 15.8
-34.5 13.5 15.56
-35.5 13.5 15.51
-36.5 13.5 15.96
-37.5 13.5 16.05
-38.5 13.5 15.72
-39.5 13.5 14.91
-40.5 13.5 13.8
-41.5 13.5 12.33
-42.5 13.5 10.91
-43.5 13.5 9.72
-44.5 13.5 8.34
-45.5 13.5 7.18
-46.5 13.5 6.05
-47.5 13.5 4.82
-48.5 13.5 3.53
-49.5 13.5 2.64
-50.5 13.5 1.85
-51.5 13.5 1
-24.5 14.5 12.61
-25.5 14.5 12.9
-26.5 14.5 13.32
-27.5 14.5 13.75
-28.5 14.5 14.57
-29.5 14.5 15.14
-30.5 14.5 15.55
-31.5 14.5 15.85
-32.5 14.5 15.98
-33.5 14.5 15.89
-34.5 14.5 15.71
-35.5 14.5 15.73
-36.5 14.5 16.35
-37.5 14.5 16.54
-38.5 14.5 16.22
-39.5 14.5 15.42
-40.5 14.5 14.34
-41.5 14.5 12.83
-42.5 14.5 11.34
-43.5 14.5 10.1
-44.5 14.5 8.67
-45.5 14.5 7.42
-46.5 14.5 6.21
-47.5 14.5 4.94
-48.5 14.5 3.62
-49.5 14.5 2.76
-50.5 14.5 1.97
-51.5 14.5 1.1
-24.5 15.5 12.82
-25.5 15.5 13.07
-26.5 15.5 13.3
-27.5 15.5 13.19
-28.5 15.5 13.78
-29.5 15.5 14.33
-30.5 15.5 14.83
-31.5 15.5 15.38
-32.5 15.5 15.8
-33.5 15.5 15.89
-34.5 15.5 15.86
-35.5 15.5 16.02
-36.5 15.5 16.72
-37.5 15.5 16.96
-38.5 15.5 16.6
-39.5 15.5 15.71
-40.5 15.5 14.6
-41.5 15.5 13
-42.5 15.5 11.45
-43.5 15.5 10.22
-44.5 15.5 8.86
-45.5 15.5 7.55
-46.5 15.5 6.26
-47.5 15.5 5
-48.5 15.5 3.7
-49.5 15.5 2.91
-50.5 15.5 2.14
-51.5 15.5 1.25
-28.5 16.5 12.99
-29.5 16.5 13.32
-30.5 16.5 13.64
-31.5 16.5 14.3
-32.5 16.5 14.99
-33.5 16.5 15.32
-34.5 16.5 15.51
-35.5 16.5 15.89
-36.5 16.5 16.84
-37.5 16.5 17.28
-38.5 16.5 16.97
-39.5 16.5 15.97
-40.5 16.5 14.78
-41.5 16.5 12.92
-42.5 16.5 11.19
-43.5 16.5 9.91
-44.5 16.5 8.76
-45.5 16.5 7.42
-46.5 16.5 6.1
-47.5 16.5 4.89
-48.5 16.5 3.68
-49.5 16.5 2.99
-50.5 16.5 2.26
-51.5 16.5 1.37
-29.5 17.5 13.24
-30.5 17.5 12.96
-31.5 17.5 13.52
-32.5 17.5 14.19
-33.5 17.5 14.63
-34.5 17.5 15.01
-35.5 17.5 15.66
-36.5 17.5 16.98
-37.5 17.5 17.63
-38.5 17.5 17.38
-39.5 17.5 16.37
-40.5 17.5 15.08
-41.5 17.5 13.04
-42.5 17.5 11.17
-43.5 17.5 9.81
-44.5 17.5 8.68
-45.5 17.5 7.3
-46.5 17.5 5.92
-47.5 17.5 4.75
-48.5 17.5 3.66
-49.5 17.5 3.02
-50.5 17.5 2.3
-51.5 17.5 1.41
-31.5 18.5 13.73
-32.5 18.5 13.85
-33.5 18.5 14.1
-34.5 18.5 14.51
-35.5 18.5 15.39
-36.5 18.5 17.1
-37.5 18.5 18
-38.5 18.5 17.88
-39.5 18.5 16.93
-40.5 18.5 15.61
-41.5 18.5 13.47
-42.5 18.5 11.46
-43.5 18.5 9.95
-44.5 18.5 8.75
-45.5 18.5 7.3
-46.5 18.5 5.87
-47.5 18.5 4.68
-48.5 18.5 3.64
-49.5 18.5 2.99
-50.5 18.5 2.25
-51.5 18.5 1.37
-33.5 19.5 14.3
-34.5 19.5 14.35
-35.5 19.5 15.31
-36.5 19.5 17.28
-37.5 19.5 18.37
-38.5 19.5 18.39
-39.5 19.5 17.55
-40.5 19.5 16.22
-41.5 19.5 14.05
-42.5 19.5 11.92
-43.5 19.5 10.21
-44.5 19.5 8.83
-45.5 19.5 7.33
-46.5 19.5 5.87
-47.5 19.5 4.64
-48.5 19.5 3.55
-49.5 19.5 2.82
-50.5 19.5 2.06
-51.5 19.5 1.24
-35.5 20.5 15.81
-36.5 20.5 17.85
-37.5 20.5 18.95
-38.5 20.5 18.97
-39.5 20.5 18.13
-40.5 20.5 16.72
-41.5 20.5 14.59
-42.5 20.5 12.37
-43.5 20.5 10.41
-44.5 20.5 8.86
-45.5 20.5 7.35
-46.5 20.5 5.93
-47.5 20.5 4.6
-48.5 20.5 3.3
-49.5 20.5 2.39
-50.5 20.5 1.62
-51.5 20.5 0.93
-35.5 21.5 16.7
-36.5 21.5 18.42
-37.5 21.5 19.32
-38.5 21.5 19.21
-39.5 21.5 18.22
-40.5 21.5 16.56
-41.5 21.5 14.5
-42.5 21.5 12.36
-43.5 21.5 10.36
-44.5 21.5 8.7
-45.5 21.5 7.21
-46.5 21.5 5.89
-47.5 21.5 4.63
-48.5 21.5 3.28
-49.5 21.5 2.31
-50.5 21.5 1.52
-51.5 21.5 0.85
