-24.5 12.5 15.78
-25.5 12.5 16.05
-26.5 12.5 16.43
-27.5 12.5 16.8
-28.5 12.5 17.07
-29.5 12.5 17.15
-30.5 12.5 17.07
-31.5 12.5 17.01
-32.5 12.5 16.98
-33.5 12.5 16.95
-34.5 12.5 16.78
-35.5 12.5 16.63
-36.5 12.5 16.71
-37.5 12.5 16.63
-38.5 12.5 16.29
-39.5 12.5 15.56
-40.5 12.5 14.27
-41.5 12.5 12.6
-42.5 12.5 10.93
-43.5 12.5 9.52
-44.5 12.5 8.21
-45.5 12.5 7.34
-46.5 12.5 6.46
-47.5 12.5 5.25
-48.5 12.5 3.87
-49.5 12.5 2.79
-50.5 12.5 1.91
-51.5 12.5 1.09
-24.5 13.5 14.71
-25.5 13.5 15.03
-26.5 13.5 15.47
-27.5 13.5 15.92
-28.5 13.5 16.47
-29.5 13.5 16.77
-30.5 13.5 16.89
-31.5 13.5 16.96
-32.5 13.5 16.96
-33.5 13.5 16.85
-34.5 13.5 16.62
-35.5 13.5 16.47
-36.5 13.5 16.72
-37.5 13.5 16.77
-38.5 13.5 16.51
-39.5 13.5 15.85
-40.5 13.5 14.72
-41.5 13.5 13.04
-42.5 13.5 11.3
-43.5 13.5 9.82
-44.5 13.5 8.39
-45.5 13.5 7.43
-46.5 13.5 6.5
-47.5 13.5 5.29
-48.5 13.5 3.89
-49.5 13.5 2.83
-50.5 13.5 1.95
-51.5 13.5 1.09
-24.5 14.5 13.9
-25.5 14.5 14.26
-26.5 14.5 14.67
-27.5 14.5 14.99
-28.5 14.5 15.68
-29.5 14.5 16.14
-30.5 14.5 16.47
-31.5 14.5 16.76
-32.5 14.5 16.95
-33.5 14.5 16.89
-34.5 14.5 16.69
-35.5 14.5 16.55
-36.5 14.5 16.94
-37.5 14.5 17.09
-38.5 14.5 16.88
-39.5 14.5 16.29
-40.5 14.5 15.22
-41.5 14.5 13.49
-42.5 14.5 11.67
-43.5 14.5 10.11
-44.5 14.5 8.64
-45.5 14.5 7.6
-46.5 14.5 6.59
-47.5 14.5 5.36
-48.5 14.5 3.95
-49.5 14.5 2.93
-50.5 14.5 2.02
-51.5 14.5 1.14
-24.5 15.5 14.07
-25.5 15.5 14.39
-26.5 15.5 14.56
-27.5 15.5 14.38
-28.5 15.5 14.81
-29.5 15.5 15.26
-30.5 15.5 15.68
-31.5 15.5 16.21
-32.5 15.5 16.73
-33.5 15.5 16.88
-34.5 15.5 16.79
-35.5 15.5 16.78
-36.5 15.5 17.3
-37.5 15.5 17.53
-38.5 15.5 17.31
-39.5 15.5 16.63
-40.5 15.5 15.47
-41.5 15.5 13.64
-42.5 15.5 11.75
-43.5 15.5 10.19
-44.5 15.5 8.81
-45.5 15.5 7.69
-46.5 15.5 6.59
-47.5 15.5 5.36
-48.5 15.5 4.01
-49.5 15.5 3.04
-50.5 15.5 2.16
-51.5 15.5 1.26
-28.5 16.5 13.9
-29.5 16.5 14.18
-30.5 16.5 14.41
-31.5 16.5 15.08
-32.5 16.5 16.05
-33.5 16.5 16.52
-34.5 16.5 16.67
-35.5 16.5 16.88
-36.5 16.5 17.6
-37.5 16.5 17.81
-38.5 16.5 17.39
-39.5 16.5 16.35
-40.5 16.5 14.92
-41.5 16.5 12.95
-42.5 16.5 11.07
-43.5 16.5 9.65
-44.5 16.5 8.56
-45.5 16.5 7.3
-46.5 16.5 6.12
-47.5 16.5 5.01
-48.5 16.5 3.89
-49.5 16.5 3.07
-50.5 16.5 2.24
-51.5 16.5 1.26
-29.5 17.5 14.01
-30.5 17.5 13.59
-31.5 17.5 14.19
-32.5 17.5 15.15
-33.5 17.5 15.72
-34.5 17.5 16.12
-35.5 17.5 16.67
-36.5 17.5 17.69
-37.5 17.5 18.07
-38.5 17.5 17.65
-39.5 17.5 16.48
-40.5 17.5 15.05
-41.5 17.5 12.98
-42.5 17.5 11.07
-43.5 17.5 9.69
-44.5 17.5 8.72
-45.5 17.5 7.36
-46.5 17.5 6.03
-47.5 17.5 4.88
-48.5 17.5 3.87
-49.5 17.5 3.08
-50.5 17.5 2.25
-51.5 17.5 1.29
-31.5 18.5 14.48
-32.5 18.5 14.69
-33.5 18.5 15.05
-34.5 18.5 15.47
-35.5 18.5 16.28
-36.5 18.5 17.6
-37.5 18.5 18.19
-38.5 18.5 17.85
-39.5 18.5 16.69
-40.5 18.5 15.39
-41.5 18.5 13.28
-42.5 18.5 11.35
-43.5 18.5 9.94
-44.5 18.5 9
-45.5 18.5 7.53
-46.5 18.5 6.07
-47.5 18.5 4.82
-48.5 18.5 3.82
-49.5 18.5 3.02
-50.5 18.5 2.18
-51.5 18.5 1.24
-33.5 19.5 15.1
-34.5 19.5 15.1
-35.5 19.5 15.97
-36.5 19.5 17.53
-37.5 19.5 18.27
-38.5 19.5 18.01
-39.5 19.5 16.92
-40.5 19.5 15.85
-41.5 19.5 13.8
-42.5 19.5 11.84
-43.5 19.5 10.34
-44.5 19.5 9.25
-45.5 19.5 7.68
-46.5 19.5 6.1
-47.5 19.5 4.76
-48.5 19.5 3.74
-49.5 19.5 2.87
-50.5 19.5 1.99
-51.5 19.5 1.07
-35.5 20.5 16.15
-36.5 20.5 17.88
-37.5 20.5 18.69
-38.5 20.5 18.47
-39.5 20.5 17.48
-40.5 20.5 16.35
-41.5 20.5 14.44
-42.5 20.5 12.49
-43.5 20.5 10.79
-44.5 20.5 9.22
-45.5 20.5 7.66
-46.5 20.5 6.13
-47.5 20.5 4.73
-48.5 20.5 3.43
-49.5 20.5 2.43
-50.5 20.5 1.53
-51.5 20.5 0.72
-35.5 21.5 16.88
-36.5 21.5 18.47
-37.5 21.5 19.15
-38.5 21.5 18.88
-39.5 21.5 17.86
-40.5 21.5 16.39
-41.5 21.5 14.53
-42.5 21.5 12.61
-43.5 21.5 10.79
-44.5 21.5 8.9
-45.5 21.5 7.38
-46.5 21.5 5.97
-47.5 21.5 4.68
-48.5 21.5 3.39
-49.5 21.5 2.35
-50.5 21.5 1.41
-51.5 21.5 0.59
