-24.5 12.5 15.06
-25.5 12.5 15.14
-26.5 12.5 15.39
-27.5 12.5 15.77
-28.5 12.5 16.12
-29.5 12.5 16.22
-30.5 12.5 16.19
-31.5 12.5 16.06
-32.5 12.5 15.89
-33.5 12.5 15.59
-34.5 12.5 15.27
-35.5 12.5 14.99
-36.5 12.5 14.73
-37.5 12.5 14.28
-38.5 12.5 13.63
-39.5 12.5 12.85
-40.5 12.5 12.17
-41.5 12.5 11.14
-42.5 12.5 9.94
-43.5 12.5 8.64
-44.5 12.5 7.47
-45.5 12.5 6.14
-46.5 12.5 5.01
-47.5 12.5 4.1
-48.5 12.5 3.1
-49.5 12.5 2.22
-50.5 12.5 1.31
-51.5 12.5 0.33
-24.5 13.5 14.1
-25.5 13.5 14.24
-26.5 13.5 14.58
-27.5 13.5 15.09
-28.5 13.5 15.74
-29.5 13.5 16.03
-30.5 13.5 16.13
-31.5 13.5 16.11
-32.5 13.5 15.97
-33.5 13.5 15.65
-34.5 13.5 15.3
-35.5 13.5 15.05
-36.5 13.5 14.9
-37.5 13.5 14.61
-38.5 13.5 14.13
-39.5 13.5 13.52
-40.5 13.5 12.9
-41.5 13.5 11.86
-42.5 13.5 10.54
-43.5 13.5 9.01
-44.5 13.5 7.53
-45.5 13.5 6.04
-46.5 13.5 4.86
-47.5 13.5 3.99
-48.5 13.5 3.08
-49.5 13.5 2.22
-50.5 13.5 1.31
-51.5 13.5 0.3
-24.5 14.5 13.42
-25.5 14.5 13.59
-26.5 14.5 13.96
-27.5 14.5 14.44
-28.5 14.5 15.28
-29.5 14.5 15.72
-30.5 14.5 15.97
-31.5 14.5 16.13
-32.5 14.5 16.13
-33.5 14.5 15.84
-34.5 14.5 15.48
-35.5 14.5 15.24
-36.5 14.5 15.22
-37.5 14.5 15.07
-38.5 14.5 14.72
-39.5 14.5 14.22
-40.5 14.5 13.59
-41.5 14.5 12.47
-42.5 14.5 11.02
-43.5 14.5 9.31
-44.5 14.5 7.59
-45.5 14.5 6
-46.5 14.5 4.8
-47.5 14.5 3.95
-48.5 14.5 3.12
-49.5 14.5 2.29
-50.5 14.5 1.39
-51.5 14.5 0.36
-24.5 15.5 13.64
-25.5 15.5 13.8
-26.5 15.5 14.05
-27.5 15.5 14.11
-28.5 15.5 14.83
-29.5 15.5 15.25
-30.5 15.5 15.59
-31.5 15.5 15.91
-32.5 15.5 16.13
-33.5 15.5 15.96
-34.5 15.5 15.68
-35.5 15.5 15.55
-36.5 15.5 15.67
-37.5 15.5 15.68
-38.5 15.5 15.43
-39.5 15.5 14.96
-40.5 15.5 14.21
-41.5 15.5 12.91
-42.5 15.5 11.27
-43.5 15.5 9.42
-44.5 15.5 7.55
-45.5 15.5 5.93
-46.5 15.5 4.76
-47.5 15.5 3.93
-48.5 15.5 3.16
-49.5 15.5 2.39
-50.5 15.5 1.51
-51.5 15.5 0.5
-28.5 16.5 14.32
-29.5 16.5 14.56
-30.5 16.5 14.82
-31.5 16.5 15.27
-32.5 16.5 15.68
-33.5 16.5 15.73
-34.5 16.5 15.71
-35.5 16.5 15.83
-36.5 16.5 16.25
-37.5 16.5 16.59
-38.5 16.5 16.57
-39.5 16.5 16.2
-40.5 16.5 15.09
-41.5 16.5 13.38
-42.5 16.5 11.34
-43.5 16.5 9.16
-44.5 16.5 7
-45.5 16.5 5.54
-46.5 16.5 4.48
-47.5 16.5 3.74
-48.5 16.5 3.07
-49.5 16.5 2.35
-50.5 16.5 1.51
-51.5 16.5 0.5
-29.5 17.5 14.55
-30.5 17.5 14.39
-31.5 17.5 14.75
-32.5 17.5 15.16
-33.5 17.5 15.31
-34.5 17.5 15.47
-35.5 17.5 15.86
-36.5 17.5 16.53
-37.5 17.5 17.06
-38.5 17.5 17.15
-39.5 17.5 16.76
-40.5 17.5 15.47
-41.5 17.5 13.53
-42.5 17.5 11.33
-43.5 17.5 9.07
-44.5 17.5 6.88
-45.5 17.5 5.46
-46.5 17.5 4.42
-47.5 17.5 3.68
-48.5 17.5 3.06
-49.5 17.5 2.37
-50.5 17.5 1.56
-51.5 17.5 0.57
-31.5 18.5 14.89
-32.5 18.5 14.93
-33.5 18.5 15.02
-34.5 18.5 15.32
-35.5 18.5 15.9
-36.5 18.5 16.78
-37.5 18.5 17.47
-38.5 18.5 17.65
-39.5 18.5 17.25
-40.5 18.5 15.81
-41.5 18.5 13.74
-42.5 18.5 11.43
-43.5 18.5 9.12
-44.5 18.5 6.9
-45.5 18.5 5.48
-46.5 18.5 4.43
-47.5 18.5 3.64
-48.5 18.5 3.03
-49.5 18.5 2.33
-50.5 18.5 1.51
-51.5 18.5 0.56
-33.5 19.5 15.46
-34.5 19.5 15.65
-35.5 19.5 16.28
-36.5 19.5 17.27
-37.5 19.5 18.05
-38.5 19.5 18.23
-39.5 19.5 17.78
-40.5 19.5 16.22
-41.5 19.5 14.05
-42.5 19.5 11.67
-43.5 19.5 9.33
-44.5 19.5 7.1
-45.5 19.5 5.69
-46.5 19.5 4.59
-47.5 19.5 3.7
-48.5 19.5 2.99
-49.5 19.5 2.2
-50.5 19.5 1.35
-51.5 19.5 0.46
-35.5 20.5 17.2
-36.5 20.5 18.22
-37.5 20.5 18.84
-38.5 20.5 18.84
-39.5 20.5 18.2
-40.5 20.5 16.57
-41.5 20.5 14.36
-42.5 20.5 12.01
-43.5 20.5 9.75
-44.5 20.5 7.57
-45.5 20.5 6.21
-46.5 20.5 5.01
-47.5 20.5 3.87
-48.5 20.5 2.85
-49.5 20.5 1.89
-50.5 20.5 1.04
-51.5 20.5 0.23
-35.5 21.5 18.11
-36.5 21.5 18.92
-37.5 21.5 19.29
-38.5 21.5 19.06
-39.5 21.5 18.26
-40.5 21.5 16.53
-41.5 21.5 14.32
-42.5 21.5 12.01
-43.5 21.5 9.82
-44.5 21.5 7.68
-45.5 21.5 6.36
-46.5 21.5 5.21
-47.5 21.5 4.01
-48.5 21.5 2.85
-49.5 21.5 1.81
-50.5 21.5 0.93
-51.5 21.5 0.15
