-24.5 12.5 16.73
-25.5 12.5 16.9
-26.5 12.5 17.22
-27.5 12.5 17.64
-28.5 12.5 18.13
-29.5 12.5 18.2
-30.5 12.5 18.05
-31.5 12.5 18.01
-32.5 12.5 18.35
-33.5 12.5 18.47
-34.5 12.5 18.31
-35.5 12.5 18.07
-36.5 12.5 18.25
-37.5 12.5 18
-38.5 12.5 17.5
-39.5 12.5 16.64
-40.5 12.5 15.36
-41.5 12.5 13.47
-42.5 12.5 11.63
-43.5 12.5 10.17
-44.5 12.5 8.82
-45.5 12.5 8.08
-46.5 12.5 7.34
-47.5 12.5 6.27
-48.5 12.5 4.76
-49.5 12.5 3.7
-50.5 12.5 2.77
-51.5 12.5 1.95
-24.5 13.5 15.43
-25.5 13.5 15.66
-26.5 13.5 16.07
-27.5 13.5 16.64
-28.5 13.5 17.44
-29.5 13.5 17.77
-30.5 13.5 17.89
-31.5 13.5 18.05
-32.5 13.5 18.45
-33.5 13.5 18.6
-34.5 13.5 18.44
-35.5 13.5 18.18
-36.5 13.5 18.38
-37.5 13.5 18.17
-38.5 13.5 17.65
-39.5 13.5 16.8
-40.5 13.5 15.64
-41.5 13.5 13.73
-42.5 13.5 11.86
-43.5 13.5 10.39
-44.5 13.5 9
-45.5 13.5 8.21
-46.5 13.5 7.4
-47.5 13.5 6.3
-48.5 13.5 4.78
-49.5 13.5 3.75
-50.5 13.5 2.85
-51.5 13.5 1.99
-24.5 14.5 14.5
-25.5 14.5 14.75
-26.5 14.5 15.16
-27.5 14.5 15.59
-28.5 14.5 16.5
-29.5 14.5 17.01
-30.5 14.5 17.37
-31.5 14.5 17.79
-32.5 14.5 18.36
-33.5 14.5 18.62
-34.5 14.5 18.5
-35.5 14.5 18.29
-36.5 14.5 18.53
-37.5 14.5 18.37
-38.5 14.5 17.86
-39.5 14.5 17.04
-40.5 14.5 16.04
-41.5 14.5 14.14
-42.5 14.5 12.23
-43.5 14.5 10.74
-44.5 14.5 9.34
-45.5 14.5 8.48
-46.5 14.5 7.57
-47.5 14.5 6.4
-48.5 14.5 4.89
-49.5 14.5 3.87
-50.5 14.5 2.95
-51.5 14.5 2.08
-24.5 15.5 14.69
-25.5 15.5 14.92
-26.5 15.5 15.09
-27.5 15.5 14.94
-28.5 15.5 15.5
-29.5 15.5 15.97
-30.5 15.5 16.43
-31.5 15.5 17.06
-32.5 15.5 17.87
-33.5 15.5 18.28
-34.5 15.5 18.29
-35.5 15.5 18.21
-36.5 15.5 18.6
-37.5 15.5 18.55
-38.5 15.5 18.07
-39.5 15.5 17.27
-40.5 15.5 16.37
-41.5 15.5 14.48
-42.5 15.5 12.59
-43.5 15.5 11.12
-44.5 15.5 9.76
-45.5 15.5 8.79
-46.5 15.5 7.75
-47.5 15.5 6.5
-48.5 15.5 4.98
-49.5 15.5 3.99
-50.5 15.5 3.07
-51.5 15.5 2.18
-28.5 16.5 14.51
-29.5 16.5 14.77
-30.5 16.5 15
-31.5 16.5 15.73
-32.5 16.5 16.82
-33.5 16.5 17.39
-34.5 16.5 17.63
-35.5 16.5 17.84
-36.5 16.5 18.63
-37.5 16.5 18.8
-38.5 16.5 18.34
-39.5 16.5 17.38
-40.5 16.5 16.36
-41.5 16.5 14.4
-42.5 16.5 12.53
-43.5 16.5 11.15
-44.5 16.5 9.94
-45.5 16.5 8.83
-46.5 16.5 7.65
-47.5 16.5 6.39
-48.5 16.5 5.06
-49.5 16.5 4.17
-50.5 16.5 3.32
-51.5 16.5 2.47
-29.5 17.5 14.57
-30.5 17.5 14.07
-31.5 17.5 14.68
-32.5 17.5 15.81
-33.5 17.5 16.47
-34.5 17.5 16.97
-35.5 17.5 17.55
-36.5 17.5 18.76
-37.5 17.5 19.12
-38.5 17.5 18.65
-39.5 17.5 17.56
-40.5 17.5 16.38
-41.5 17.5 14.38
-42.5 17.5 12.5
-43.5 17.5 11.17
-44.5 17.5 10.16
-45.5 17.5 8.97
-46.5 17.5 7.69
-47.5 17.5 6.38
-48.5 17.5 5.07
-49.5 17.5 4.19
-50.5 17.5 3.37
-51.5 17.5 2.52
-31.5 18.5 15.11
-32.5 18.5 15.48
-33.5 18.5 15.89
-34.5 18.5 16.47
-35.5 18.5 17.36
-36.5 18.5 18.87
-37.5 18.5 19.38
-38.5 18.5 18.95
-39.5 18.5 17.75
-40.5 18.5 16.39
-41.5 18.5 14.31
-42.5 18.5 12.4
-43.5 18.5 11.05
-44.5 18.5 10.23
-45.5 18.5 9
-46.5 18.5 7.65
-47.5 18.5 6.33
-48.5 18.5 5.03
-49.5 18.5 4.17
-50.5 18.5 3.33
-51.5 18.5 2.5
-33.5 19.5 16.14
-34.5 19.5 16.4
-35.5 19.5 17.44
-36.5 19.5 19.17
-37.5 19.5 19.82
-38.5 19.5 19.38
-39.5 19.5 18.1
-40.5 19.5 16.57
-41.5 19.5 14.42
-42.5 19.5 12.44
-43.5 19.5 10.98
-44.5 19.5 10.22
-45.5 19.5 8.91
-46.5 19.5 7.55
-47.5 19.5 6.25
-48.5 19.5 4.97
-49.5 19.5 4.07
-50.5 19.5 3.24
-51.5 19.5 2.41
-35.5 20.5 17.75
-36.5 20.5 19.77
-37.5 20.5 20.59
-38.5 20.5 20.13
-39.5 20.5 18.75
-40.5 20.5 17.03
-41.5 20.5 14.89
-42.5 20.5 12.85
-43.5 20.5 11.14
-44.5 20.5 10
-45.5 20.5 8.63
-46.5 20.5 7.38
-47.5 20.5 6.19
-48.5 20.5 4.93
-49.5 20.5 3.93
-50.5 20.5 3.01
-51.5 20.5 2.22
-35.5 21.5 18.44
-36.5 21.5 20.22
-37.5 21.5 20.88
-38.5 21.5 20.31
-39.5 21.5 18.8
-40.5 21.5 16.88
-41.5 21.5 14.83
-42.5 21.5 12.85
-43.5 21.5 11.08
-44.5 21.5 9.76
-45.5 21.5 8.36
-46.5 21.5 7.21
-47.5 21.5 6.11
-48.5 21.5 4.89
-49.5 21.5 3.87
-50.5 21.5 2.91
-51.5 21.5 2.08
