-24.5 12.5 15.27
-25.5 12.5 15.35
-26.5 12.5 15.59
-27.5 12.5 15.91
-28.5 12.5 16.22
-29.5 12.5 16.37
-30.5 12.5 16.39
-31.5 12.5 16.35
-32.5 12.5 16.26
-33.5 12.5 16.05
-34.5 12.5 15.83
-35.5 12.5 15.64
-36.5 12.5 15.52
-37.5 12.5 15.17
-38.5 12.5 14.56
-39.5 12.5 13.8
-40.5 12.5 13
-41.5 12.5 11.89
-42.5 12.5 10.56
-43.5 12.5 9.09
-44.5 12.5 7.69
-45.5 12.5 6.28
-46.5 12.5 5.06
-47.5 12.5 4.07
-48.5 12.5 3.14
-49.5 12.5 2.24
-50.5 12.5 1.33
-51.5 12.5 0.35
-24.5 13.5 14.42
-25.5 13.5 14.57
-26.5 13.5 14.89
-27.5 13.5 15.33
-28.5 13.5 15.89
-29.5 13.5 16.23
-30.5 13.5 16.4
-31.5 13.5 16.46
-32.5 13.5 16.42
-33.5 13.5 16.18
-34.5 13.5 15.9
-35.5 13.5 15.71
-36.5 13.5 15.67
-37.5 13.5 15.47
-38.5 13.5 15.02
-39.5 13.5 14.41
-40.5 13.5 13.74
-41.5 13.5 12.66
-42.5 13.5 11.25
-43.5 13.5 9.58
-44.5 13.5 7.87
-45.5 13.5 6.29
-46.5 13.5 5.01
-47.5 13.5 4.03
-48.5 13.5 3.14
-49.5 13.5 2.26
-50.5 13.5 1.35
-51.5 13.5 0.34
-24.5 14.5 13.86
-25.5 14.5 14.05
-26.5 14.5 14.36
-27.5 14.5 14.75
-28.5 14.5 15.49
-29.5 14.5 15.99
-30.5 14.5 16.32
-31.5 14.5 16.55
-32.5 14.5 16.64
-33.5 14.5 16.43
-34.5 14.5 16.13
-35.5 14.5 15.92
-36.5 14.5 15.97
-37.5 14.5 15.89
-38.5 14.5 15.55
-39.5 14.5 15.03
-40.5 14.5 14.43
-41.5 14.5 13.3
-42.5 14.5 11.79
-43.5 14.5 9.97
-44.5 14.5 8.04
-45.5 14.5 6.35
-46.5 14.5 5.03
-47.5 14.5 4.06
-48.5 14.5 3.22
-49.5 14.5 2.35
-50.5 14.5 1.45
-51.5 14.5 0.43
-24.5 15.5 14.07
-25.5 15.5 14.23
-26.5 15.5 14.46
-27.5 15.5 14.49
-28.5 15.5 15.08
-29.5 15.5 15.58
-30.5 15.5 16.01
-31.5 15.5 16.4
-32.5 15.5 16.71
-33.5 15.5 16.61
-34.5 15.5 16.36
-35.5 15.5 16.21
-36.5 15.5 16.38
-37.5 15.5 16.43
-38.5 15.5 16.18
-39.5 15.5 15.67
-40.5 15.5 15.02
-41.5 15.5 13.75
-42.5 15.5 12.1
-43.5 15.5 10.18
-44.5 15.5 8.13
-45.5 15.5 6.42
-46.5 15.5 5.09
-47.5 15.5 4.11
-48.5 15.5 3.28
-49.5 15.5 2.47
-50.5 15.5 1.6
-51.5 15.5 0.57
-28.5 16.5 14.68
-29.5 16.5 15
-30.5 16.5 15.32
-31.5 16.5 15.84
-32.5 16.5 16.31
-33.5 16.5 16.38
-34.5 16.5 16.32
-35.5 16.5 16.44
-36.5 16.5 16.86
-37.5 16.5 17.13
-38.5 16.5 16.96
-39.5 16.5 16.4
-40.5 16.5 15.34
-41.5 16.5 13.74
-42.5 16.5 11.85
-43.5 16.5 9.84
-44.5 16.5 7.72
-45.5 16.5 6.17
-46.5 16.5 4.93
-47.5 16.5 4.01
-48.5 16.5 3.25
-49.5 16.5 2.55
-50.5 16.5 1.74
-51.5 16.5 0.74
-29.5 17.5 15.01
-30.5 17.5 14.9
-31.5 17.5 15.34
-32.5 17.5 15.8
-33.5 17.5 15.96
-34.5 17.5 16.07
-35.5 17.5 16.44
-36.5 17.5 17.12
-37.5 17.5 17.57
-38.5 17.5 17.48
-39.5 17.5 16.92
-40.5 17.5 15.66
-41.5 17.5 13.89
-42.5 17.5 11.85
-43.5 17.5 9.78
-44.5 17.5 7.67
-45.5 17.5 6.15
-46.5 17.5 4.93
-47.5 17.5 3.99
-48.5 17.5 3.27
-49.5 17.5 2.6
-50.5 17.5 1.83
-51.5 17.5 0.83
-31.5 18.5 15.48
-32.5 18.5 15.56
-33.5 18.5 15.64
-34.5 18.5 15.89
-35.5 18.5 16.44
-36.5 18.5 17.31
-37.5 18.5 17.94
-38.5 18.5 17.93
-39.5 18.5 17.35
-40.5 18.5 15.92
-41.5 18.5 14.01
-42.5 18.5 11.89
-43.5 18.5 9.78
-44.5 18.5 7.68
-45.5 18.5 6.18
-46.5 18.5 4.94
-47.5 18.5 3.97
-48.5 18.5 3.25
-49.5 18.5 2.56
-50.5 18.5 1.79
-51.5 18.5 0.83
-33.5 19.5 16.01
-34.5 19.5 16.13
-35.5 19.5 16.75
-36.5 19.5 17.73
-37.5 19.5 18.44
-38.5 19.5 18.46
-39.5 19.5 17.84
-40.5 19.5 16.25
-41.5 19.5 14.24
-42.5 19.5 12.05
-43.5 19.5 9.93
-44.5 19.5 7.84
-45.5 19.5 6.36
-46.5 19.5 5.1
-47.5 19.5 4.05
-48.5 19.5 3.22
-49.5 19.5 2.45
-50.5 19.5 1.66
-51.5 19.5 0.75
-35.5 20.5 17.72
-36.5 20.5 18.75
-37.5 20.5 19.3
-38.5 20.5 19.12
-39.5 20.5 18.29
-40.5 20.5 16.56
-41.5 20.5 14.47
-42.5 20.5 12.27
-43.5 20.5 10.25
-44.5 20.5 8.25
-45.5 20.5 6.88
-46.5 20.5 5.59
-47.5 20.5 4.32
-48.5 20.5 3.12
-49.5 20.5 2.2
-50.5 20.5 1.37
-51.5 20.5 0.55
-35.5 21.5 18.7
-36.5 21.5 19.55
-37.5 21.5 19.86
-38.5 21.5 19.46
-39.5 21.5 18.46
-40.5 21.5 16.62
-41.5 21.5 14.47
-42.5 21.5 12.29
-43.5 21.5 10.28
-44.5 21.5 8.33
-45.5 21.5 7.02
-46.5 21.5 5.78
-47.5 21.5 4.48
-48.5 21.5 3.14
-49.5 21.5 2.12
-50.5 21.5 1.25
-51.5 21.5 0.46
