-24.5 12.5 14.97
-25.5 12.5 15.14
-26.5 12.5 15.42
-27.5 12.5 15.75
-28.5 12.5 16.02
-29.5 12.5 16.06
-30.5 12.5 16.01
-31.5 12.5 15.89
-32.5 12.5 15.68
-33.5 12.5 15.55
-34.5 12.5 15.36
-35.5 12.5 15.19
-36.5 12.5 14.99
-37.5 12.5 14.53
-38.5 12.5 13.81
-39.5 12.5 12.9
-40.5 12.5 11.93
-41.5 12.5 10.76
-42.5 12.5 9.58
-43.5 12.5 8.39
-44.5 12.5 7.06
-45.5 12.5 5.85
-46.5 12.5 4.8
-47.5 12.5 3.78
-48.5 12.5 2.83
-49.5 12.5 2.01
-50.5 12.5 1.28
-51.5 12.5 0.5
-24.5 13.5 13.84
-25.5 13.5 14.09
-26.5 13.5 14.5
-27.5 13.5 14.97
-28.5 13.5 15.49
-29.5 13.5 15.74
-30.5 13.5 15.84
-31.5 13.5 15.85
-32.5 13.5 15.73
-33.5 13.5 15.6
-34.5 13.5 15.43
-35.5 13.5 15.32
-36.5 13.5 15.19
-37.5 13.5 14.81
-38.5 13.5 14.16
-39.5 13.5 13.31
-40.5 13.5 12.4
-41.5 13.5 11.32
-42.5 13.5 10.16
-43.5 13.5 8.89
-44.5 13.5 7.31
-45.5 13.5 5.96
-46.5 13.5 4.8
-47.5 13.5 3.75
-48.5 13.5 2.82
-49.5 13.5 2.03
-50.5 13.5 1.31
-51.5 13.5 0.49
-24.5 14.5 13
-25.5 14.5 13.3
-26.5 14.5 13.73
-27.5 14.5 14.16
-28.5 14.5 14.88
-29.5 14.5 15.28
-30.5 14.5 15.56
-31.5 14.5 15.76
-32.5 14.5 15.91
-33.5 14.5 15.88
-34.5 14.5 15.75
-35.5 14.5 15.69
-36.5 14.5 15.63
-37.5 14.5 15.28
-38.5 14.5 14.64
-39.5 14.5 13.81
-40.5 14.5 12.94
-41.5 14.5 11.86
-42.5 14.5 10.66
-43.5 14.5 9.32
-44.5 14.5 7.59
-45.5 14.5 6.13
-46.5 14.5 4.93
-47.5 14.5 3.83
-48.5 14.5 2.91
-49.5 14.5 2.14
-50.5 14.5 1.43
-51.5 14.5 0.56
-24.5 15.5 13.23
-25.5 15.5 13.47
-26.5 15.5 13.73
-27.5 15.5 13.69
-28.5 15.5 14.22
-29.5 15.5 14.65
-30.5 15.5 15.05
-31.5 15.5 15.47
-32.5 15.5 15.98
-33.5 15.5 16.13
-34.5 15.5 16.09
-35.5 15.5 16.09
-36.5 15.5 16.12
-37.5 15.5 15.81
-38.5 15.5 15.15
-39.5 15.5 14.27
-40.5 15.5 13.38
-41.5 15.5 12.22
-42.5 15.5 10.94
-43.5 15.5 9.57
-44.5 15.5 7.82
-45.5 15.5 6.32
-46.5 15.5 5.06
-47.5 15.5 3.95
-48.5 15.5 3.02
-49.5 15.5 2.27
-50.5 15.5 1.58
-51.5 15.5 0.68
-28.5 16.5 13.59
-29.5 16.5 13.9
-30.5 16.5 14.19
-31.5 16.5 14.76
-32.5 16.5 15.52
-33.5 16.5 15.86
-34.5 16.5 16.03
-35.5 16.5 16.27
-36.5 16.5 16.63
-37.5 16.5 16.51
-38.5 16.5 15.85
-39.5 16.5 14.84
-40.5 16.5 13.72
-41.5 16.5 12.36
-42.5 16.5 10.97
-43.5 16.5 9.64
-44.5 16.5 7.88
-45.5 16.5 6.38
-46.5 16.5 5.03
-47.5 16.5 3.84
-48.5 16.5 2.89
-49.5 16.5 2.25
-50.5 16.5 1.6
-51.5 16.5 0.74
-29.5 17.5 13.86
-30.5 17.5 13.65
-31.5 17.5 14.17
-32.5 17.5 14.97
-33.5 17.5 15.4
-34.5 17.5 15.71
-35.5 17.5 16.18
-36.5 17.5 16.88
-37.5 17.5 16.93
-38.5 17.5 16.31
-39.5 17.5 15.22
-40.5 17.5 14.02
-41.5 17.5 12.47
-42.5 17.5 10.91
-43.5 17.5 9.56
-44.5 17.5 7.9
-45.5 17.5 6.42
-46.5 17.5 5.06
-47.5 17.5 3.87
-48.5 17.5 2.89
-49.5 17.5 2.28
-50.5 17.5 1.64
-51.5 17.5 0.77
-31.5 18.5 14.47
-32.5 18.5 14.72
-33.5 18.5 15.02
-34.5 18.5 15.39
-35.5 18.5 16.09
-36.5 18.5 17.09
-37.5 18.5 17.31
-38.5 18.5 16.76
-39.5 18.5 15.64
-40.5 18.5 14.38
-41.5 18.5 12.67
-42.5 18.5 10.95
-43.5 18.5 9.52
-44.5 18.5 7.97
-45.5 18.5 6.5
-46.5 18.5 5.1
-47.5 18.5 3.89
-48.5 18.5 2.87
-49.5 18.5 2.24
-50.5 18.5 1.58
-51.5 18.5 0.75
-33.5 19.5 15.25
-34.5 19.5 15.36
-35.5 19.5 16.15
-36.5 19.5 17.3
-37.5 19.5 17.63
-38.5 19.5 17.1
-39.5 19.5 15.92
-40.5 19.5 14.61
-41.5 19.5 12.8
-42.5 19.5 10.99
-43.5 19.5 9.51
-44.5 19.5 8.06
-45.5 19.5 6.6
-46.5 19.5 5.19
-47.5 19.5 3.91
-48.5 19.5 2.79
-49.5 19.5 2.08
-50.5 19.5 1.39
-51.5 19.5 0.61
-35.5 20.5 16.56
-36.5 20.5 17.72
-37.5 20.5 18.07
-38.5 20.5 17.56
-39.5 20.5 16.38
-40.5 20.5 14.9
-41.5 20.5 12.97
-42.5 20.5 11.08
-43.5 20.5 9.57
-44.5 20.5 8.18
-45.5 20.5 6.82
-46.5 20.5 5.44
-47.5 20.5 4.05
-48.5 20.5 2.66
-49.5 20.5 1.79
-50.5 20.5 1.05
-51.5 20.5 0.36
-35.5 21.5 17.48
-36.5 21.5 18.38
-37.5 21.5 18.5
-38.5 21.5 17.8
-39.5 21.5 16.43
-40.5 21.5 14.72
-41.5 21.5 12.78
-42.5 21.5 10.95
-43.5 21.5 9.45
-44.5 21.5 8.04
-45.5 21.5 6.76
-46.5 21.5 5.47
-47.5 21.5 4.11
-48.5 21.5 2.66
-49.5 21.5 1.72
-50.5 21.5 0.96
-51.5 21.5 0.29
