-24.5 12.5 16.31
-25.5 12.5 16.47
-26.5 12.5 16.79
-27.5 12.5 17.22
-28.5 12.5 17.8
-29.5 12.5 17.95
-30.5 12.5 17.88
-31.5 12.5 17.88
-32.5 12.5 18.14
-33.5 12.5 18.18
-34.5 12.5 17.92
-35.5 12.5 17.59
-36.5 12.5 17.5
-37.5 12.5 17.13
-38.5 12.5 16.53
-39.5 12.5 15.61
-40.5 12.5 14.39
-41.5 12.5 12.58
-42.5 12.5 10.85
-43.5 12.5 9.5
-44.5 12.5 8.45
-45.5 12.5 7.75
-46.5 12.5 7.09
-47.5 12.5 6.12
-48.5 12.5 4.75
-49.5 12.5 3.68
-50.5 12.5 2.74
-51.5 12.5 1.89
-24.5 13.5 15.07
-25.5 13.5 15.28
-26.5 13.5 15.68
-27.5 13.5 16.27
-28.5 13.5 17.12
-29.5 13.5 17.53
-30.5 13.5 17.72
-31.5 13.5 17.9
-32.5 13.5 18.22
-33.5 13.5 18.28
-34.5 13.5 18.01
-35.5 13.5 17.65
-36.5 13.5 17.59
-37.5 13.5 17.26
-38.5 13.5 16.63
-39.5 13.5 15.73
-40.5 13.5 14.64
-41.5 13.5 12.84
-42.5 13.5 11.09
-43.5 13.5 9.72
-44.5 13.5 8.64
-45.5 13.5 7.87
-46.5 13.5 7.14
-47.5 13.5 6.12
-48.5 13.5 4.73
-49.5 13.5 3.7
-50.5 13.5 2.78
-51.5 13.5 1.91
-24.5 14.5 14.19
-25.5 14.5 14.43
-26.5 14.5 14.82
-27.5 14.5 15.25
-28.5 14.5 16.18
-29.5 14.5 16.76
-30.5 14.5 17.18
-31.5 14.5 17.62
-32.5 14.5 18.13
-33.5 14.5 18.29
-34.5 14.5 18.07
-35.5 14.5 17.79
-36.5 14.5 17.79
-37.5 14.5 17.51
-38.5 14.5 16.89
-39.5 14.5 16.03
-40.5 14.5 15.06
-41.5 14.5 13.27
-42.5 14.5 11.5
-43.5 14.5 10.11
-44.5 14.5 9.01
-45.5 14.5 8.16
-46.5 14.5 7.31
-47.5 14.5 6.22
-48.5 14.5 4.8
-49.5 14.5 3.78
-50.5 14.5 2.85
-51.5 14.5 1.95
-24.5 15.5 14.4
-25.5 15.5 14.6
-26.5 15.5 14.77
-27.5 15.5 14.64
-28.5 15.5 15.16
-29.5 15.5 15.71
-30.5 15.5 16.21
-31.5 15.5 16.87
-32.5 15.5 17.64
-33.5 15.5 17.97
-34.5 15.5 17.92
-35.5 15.5 17.79
-36.5 15.5 18
-37.5 15.5 17.84
-38.5 15.5 17.26
-39.5 15.5 16.38
-40.5 15.5 15.47
-41.5 15.5 13.68
-42.5 15.5 11.89
-43.5 15.5 10.51
-44.5 15.5 9.42
-45.5 15.5 8.46
-46.5 15.5 7.47
-47.5 15.5 6.3
-48.5 15.5 4.89
-49.5 15.5 3.89
-50.5 15.5 2.97
-51.5 15.5 2.06
-28.5 16.5 14.13
-29.5 16.5 14.41
-30.5 16.5 14.67
-31.5 16.5 15.41
-32.5 16.5 16.51
-33.5 16.5 17.03
-34.5 16.5 17.22
-35.5 16.5 17.42
-36.5 16.5 18.13
-37.5 16.5 18.27
-38.5 16.5 17.77
-39.5 16.5 16.8
-40.5 16.5 15.72
-41.5 16.5 13.8
-42.5 16.5 11.98
-43.5 16.5 10.62
-44.5 16.5 9.56
-45.5 16.5 8.48
-46.5 16.5 7.36
-47.5 16.5 6.17
-48.5 16.5 4.89
-49.5 16.5 3.99
-50.5 16.5 3.12
-51.5 16.5 2.25
-29.5 17.5 14.18
-30.5 17.5 13.66
-31.5 17.5 14.3
-32.5 17.5 15.43
-33.5 17.5 16.09
-34.5 17.5 16.55
-35.5 17.5 17.18
-36.5 17.5 18.38
-37.5 17.5 18.75
-38.5 17.5 18.28
-39.5 17.5 17.18
-40.5 17.5 15.91
-41.5 17.5 13.9
-42.5 17.5 12.03
-43.5 17.5 10.7
-44.5 17.5 9.76
-45.5 17.5 8.62
-46.5 17.5 7.4
-47.5 17.5 6.17
-48.5 17.5 4.89
-49.5 17.5 4.01
-50.5 17.5 3.18
-51.5 17.5 2.31
-31.5 18.5 14.69
-32.5 18.5 15.02
-33.5 18.5 15.47
-34.5 18.5 16.06
-35.5 18.5 17.02
-36.5 18.5 18.59
-37.5 18.5 19.14
-38.5 18.5 18.72
-39.5 18.5 17.51
-40.5 18.5 16.06
-41.5 18.5 13.96
-42.5 18.5 12.01
-43.5 18.5 10.66
-44.5 18.5 9.85
-45.5 18.5 8.66
-46.5 18.5 7.38
-47.5 18.5 6.12
-48.5 18.5 4.86
-49.5 18.5 3.99
-50.5 18.5 3.16
-51.5 18.5 2.29
-33.5 19.5 15.74
-34.5 19.5 15.97
-35.5 19.5 17.1
-36.5 19.5 18.9
-37.5 19.5 19.63
-38.5 19.5 19.22
-39.5 19.5 17.94
-40.5 19.5 16.3
-41.5 19.5 14.11
-42.5 19.5 12.1
-43.5 19.5 10.64
-44.5 19.5 9.84
-45.5 19.5 8.6
-46.5 19.5 7.3
-47.5 19.5 6.05
-48.5 19.5 4.82
-49.5 19.5 3.91
-50.5 19.5 3.06
-51.5 19.5 2.22
-35.5 20.5 17.55
-36.5 20.5 19.57
-37.5 20.5 20.38
-38.5 20.5 19.94
-39.5 20.5 18.55
-40.5 20.5 16.7
-41.5 20.5 14.56
-42.5 20.5 12.53
-43.5 20.5 10.86
-44.5 20.5 9.56
-45.5 20.5 8.31
-46.5 20.5 7.11
-47.5 20.5 5.96
-48.5 20.5 4.68
-49.5 20.5 3.64
-50.5 20.5 2.72
-51.5 20.5 1.91
-35.5 21.5 18.4
-36.5 21.5 20.15
-37.5 21.5 20.76
-38.5 21.5 20.13
-39.5 21.5 18.57
-40.5 21.5 16.44
-41.5 21.5 14.39
-42.5 21.5 12.43
-43.5 21.5 10.72
-44.5 21.5 9.26
-45.5 21.5 7.98
-46.5 21.5 6.88
-47.5 21.5 5.83
-48.5 21.5 4.61
-49.5 21.5 3.53
-50.5 21.5 2.55
-51.5 21.5 1.72
