-24.5 12.5 16.06
-25.5 12.5 16.29
-26.5 12.5 16.63
-27.5 12.5 17.03
-28.5 12.5 17.36
-29.5 12.5 17.34
-30.5 12.5 17.15
-31.5 12.5 17.06
-32.5 12.5 17.07
-33.5 12.5 17.05
-34.5 12.5 16.81
-35.5 12.5 16.53
-36.5 12.5 16.61
-37.5 12.5 16.54
-38.5 12.5 16.27
-39.5 12.5 15.74
-40.5 12.5 14.72
-41.5 12.5 12.95
-42.5 12.5 11.12
-43.5 12.5 9.6
-44.5 12.5 8.11
-45.5 12.5 7.3
-46.5 12.5 6.44
-47.5 12.5 5.3
-48.5 12.5 3.8
-49.5 12.5 2.7
-50.5 12.5 1.76
-51.5 12.5 0.89
-24.5 13.5 14.93
-25.5 13.5 15.21
-26.5 13.5 15.59
-27.5 13.5 16.07
-28.5 13.5 16.67
-29.5 13.5 16.88
-30.5 13.5 16.94
-31.5 13.5 17
-32.5 13.5 17.04
-33.5 13.5 16.98
-34.5 13.5 16.7
-35.5 13.5 16.4
-36.5 13.5 16.63
-37.5 13.5 16.69
-38.5 13.5 16.5
-39.5 13.5 16.06
-40.5 13.5 15.25
-41.5 13.5 13.46
-42.5 13.5 11.53
-43.5 13.5 9.91
-44.5 13.5 8.27
-45.5 13.5 7.37
-46.5 13.5 6.46
-47.5 13.5 5.32
-48.5 13.5 3.82
-49.5 13.5 2.76
-50.5 13.5 1.83
-51.5 13.5 0.93
-24.5 14.5 14.11
-25.5 14.5 14.39
-26.5 14.5 14.74
-27.5 14.5 15.08
-28.5 14.5 15.76
-29.5 14.5 16.15
-30.5 14.5 16.42
-31.5 14.5 16.72
-32.5 14.5 16.97
-33.5 14.5 17
-34.5 14.5 16.76
-35.5 14.5 16.52
-36.5 14.5 16.88
-37.5 14.5 17.06
-38.5 14.5 16.97
-39.5 14.5 16.6
-40.5 14.5 15.88
-41.5 14.5 14.02
-42.5 14.5 12.01
-43.5 14.5 10.28
-44.5 14.5 8.56
-45.5 14.5 7.56
-46.5 14.5 6.56
-47.5 14.5 5.38
-48.5 14.5 3.91
-49.5 14.5 2.89
-50.5 14.5 1.95
-51.5 14.5 1.01
-24.5 15.5 14.32
-25.5 15.5 14.52
-26.5 15.5 14.64
-27.5 15.5 14.42
-28.5 15.5 14.8
-29.5 15.5 15.15
-30.5 15.5 15.53
-31.5 15.5 16.07
-32.5 15.5 16.67
-33.5 15.5 16.88
-34.5 15.5 16.79
-35.5 15.5 16.72
-36.5 15.5 17.29
-37.5 15.5 17.63
-38.5 15.5 17.59
-39.5 15.5 17.17
-40.5 15.5 16.32
-41.5 15.5 14.39
-42.5 15.5 12.29
-43.5 15.5 10.51
-44.5 15.5 8.87
-45.5 15.5 7.75
-46.5 15.5 6.61
-47.5 15.5 5.39
-48.5 15.5 3.99
-49.5 15.5 3.01
-50.5 15.5 2.1
-51.5 15.5 1.19
-28.5 16.5 13.78
-29.5 16.5 13.98
-30.5 16.5 14.18
-31.5 16.5 14.89
-32.5 16.5 15.9
-33.5 16.5 16.43
-34.5 16.5 16.63
-35.5 16.5 16.88
-36.5 16.5 17.81
-37.5 16.5 18.3
-38.5 16.5 18.12
-39.5 16.5 17.32
-40.5 16.5 16.01
-41.5 16.5 13.92
-42.5 16.5 11.87
-43.5 16.5 10.25
-44.5 16.5 8.9
-45.5 16.5 7.55
-46.5 16.5 6.25
-47.5 16.5 5.05
-48.5 16.5 3.89
-49.5 16.5 3.1
-50.5 16.5 2.33
-51.5 16.5 1.49
-29.5 17.5 13.8
-30.5 17.5 13.32
-31.5 17.5 13.94
-32.5 17.5 15
-33.5 17.5 15.65
-34.5 17.5 16.14
-35.5 17.5 16.81
-36.5 17.5 18.13
-37.5 17.5 18.82
-38.5 17.5 18.67
-39.5 17.5 17.72
-40.5 17.5 16.22
-41.5 17.5 14.03
-42.5 17.5 11.95
-43.5 17.5 10.37
-44.5 17.5 9.19
-45.5 17.5 7.72
-46.5 17.5 6.27
-47.5 17.5 4.97
-48.5 17.5 3.87
-49.5 17.5 3.14
-50.5 17.5 2.41
-51.5 17.5 1.58
-31.5 18.5 14.31
-32.5 18.5 14.61
-33.5 18.5 15.06
-34.5 18.5 15.64
-35.5 18.5 16.62
-36.5 18.5 18.27
-37.5 18.5 19.15
-38.5 18.5 19.04
-39.5 18.5 18.03
-40.5 18.5 16.48
-41.5 18.5 14.25
-42.5 18.5 12.17
-43.5 18.5 10.61
-44.5 18.5 9.51
-45.5 18.5 7.96
-46.5 18.5 6.37
-47.5 18.5 4.97
-48.5 18.5 3.89
-49.5 18.5 3.12
-50.5 18.5 2.41
-51.5 18.5 1.6
-33.5 19.5 15.26
-34.5 19.5 15.41
-35.5 19.5 16.52
-36.5 19.5 18.38
-37.5 19.5 19.39
-38.5 19.5 19.3
-39.5 19.5 18.27
-40.5 19.5 16.82
-41.5 19.5 14.63
-42.5 19.5 12.55
-43.5 19.5 10.93
-44.5 19.5 9.8
-45.5 19.5 8.13
-46.5 19.5 6.46
-47.5 19.5 4.97
-48.5 19.5 3.84
-49.5 19.5 3.03
-50.5 19.5 2.29
-51.5 19.5 1.52
-35.5 20.5 16.72
-36.5 20.5 18.75
-37.5 20.5 19.71
-38.5 20.5 19.55
-39.5 20.5 18.5
-40.5 20.5 17.15
-41.5 20.5 15.08
-42.5 20.5 13.03
-43.5 20.5 11.29
-44.5 20.5 9.81
-45.5 20.5 8.14
-46.5 20.5 6.48
-47.5 20.5 4.94
-48.5 20.5 3.64
-49.5 20.5 2.72
-50.5 20.5 1.99
-51.5 20.5 1.31
-35.5 21.5 17.5
-36.5 21.5 19.28
-37.5 21.5 20.1
-38.5 21.5 19.84
-39.5 21.5 18.71
-40.5 21.5 17.18
-41.5 21.5 15.17
-42.5 21.5 13.17
-43.5 21.5 11.32
-44.5 21.5 9.57
-45.5 21.5 7.89
-46.5 21.5 6.33
-47.5 21.5 4.89
-48.5 21.5 3.62
-49.5 21.5 2.66
-50.5 21.5 1.87
-51.5 21.5 1.19
