-24.5 12.5 15.64
-25.5 12.5 15.8
-26.5 12.5 16.09
-27.5 12.5 16.38
-28.5 12.5 16.6
-29.5 12.5 16.64
-30.5 12.5 16.54
-31.5 12.5 16.42
-32.5 12.5 16.32
-33.5 12.5 16.13
-34.5 12.5 15.82
-35.5 12.5 15.56
-36.5 12.5 15.59
-37.5 12.5 15.38
-38.5 12.5 14.9
-39.5 12.5 14.07
-40.5 12.5 12.97
-41.5 12.5 11.41
-42.5 12.5 9.94
-43.5 12.5 8.76
-44.5 12.5 7.71
-45.5 12.5 6.81
-46.5 12.5 5.89
-47.5 12.5 4.72
-48.5 12.5 3.29
-49.5 12.5 2.24
-50.5 12.5 1.37
-51.5 12.5 0.56
-24.5 13.5 14.61
-25.5 13.5 14.84
-26.5 13.5 15.17
-27.5 13.5 15.55
-28.5 13.5 16.04
-29.5 13.5 16.3
-30.5 13.5 16.38
-31.5 13.5 16.4
-32.5 13.5 16.32
-33.5 13.5 16.07
-34.5 13.5 15.72
-35.5 13.5 15.47
-36.5 13.5 15.64
-37.5 13.5 15.55
-38.5 13.5 15.14
-39.5 13.5 14.36
-40.5 13.5 13.42
-41.5 13.5 11.85
-42.5 13.5 10.33
-43.5 13.5 9.09
-44.5 13.5 7.93
-45.5 13.5 6.92
-46.5 13.5 5.93
-47.5 13.5 4.73
-48.5 13.5 3.27
-49.5 13.5 2.24
-50.5 13.5 1.37
-51.5 13.5 0.55
-24.5 14.5 13.86
-25.5 14.5 14.13
-26.5 14.5 14.43
-27.5 14.5 14.68
-28.5 14.5 15.3
-29.5 14.5 15.73
-30.5 14.5 16.03
-31.5 14.5 16.27
-32.5 14.5 16.39
-33.5 14.5 16.21
-34.5 14.5 15.86
-35.5 14.5 15.64
-36.5 14.5 15.92
-37.5 14.5 15.93
-38.5 14.5 15.58
-39.5 14.5 14.83
-40.5 14.5 13.97
-41.5 14.5 12.36
-42.5 14.5 10.75
-43.5 14.5 9.43
-44.5 14.5 8.22
-45.5 14.5 7.11
-46.5 14.5 6.04
-47.5 14.5 4.8
-48.5 14.5 3.32
-49.5 14.5 2.33
-50.5 14.5 1.47
-51.5 14.5 0.6
-24.5 15.5 14.05
-25.5 15.5 14.25
-26.5 15.5 14.32
-27.5 15.5 14.11
-28.5 15.5 14.51
-29.5 15.5 14.94
-30.5 15.5 15.34
-31.5 15.5 15.81
-32.5 15.5 16.29
-33.5 15.5 16.3
-34.5 15.5 16.07
-35.5 15.5 15.97
-36.5 15.5 16.38
-37.5 15.5 16.45
-38.5 15.5 16.07
-39.5 15.5 15.22
-40.5 15.5 14.3
-41.5 15.5 12.57
-42.5 15.5 10.9
-43.5 15.5 9.57
-44.5 15.5 8.4
-45.5 15.5 7.21
-46.5 15.5 6.05
-47.5 15.5 4.8
-48.5 15.5 3.39
-49.5 15.5 2.45
-50.5 15.5 1.6
-51.5 15.5 0.73
-28.5 16.5 13.67
-29.5 16.5 13.93
-30.5 16.5 14.14
-31.5 16.5 14.78
-32.5 16.5 15.68
-33.5 16.5 15.98
-34.5 16.5 15.99
-35.5 16.5 16.1
-36.5 16.5 16.61
-37.5 16.5 16.64
-38.5 16.5 16.11
-39.5 16.5 15
-40.5 16.5 14.01
-41.5 16.5 12.21
-42.5 16.5 10.55
-43.5 16.5 9.3
-44.5 16.5 8.22
-45.5 16.5 6.89
-46.5 16.5 5.64
-47.5 16.5 4.48
-48.5 16.5 3.35
-49.5 16.5 2.58
-50.5 16.5 1.81
-51.5 16.5 0.92
-29.5 17.5 13.78
-30.5 17.5 13.39
-31.5 17.5 13.96
-32.5 17.5 14.89
-33.5 17.5 15.31
-34.5 17.5 15.56
-35.5 17.5 15.97
-36.5 17.5 16.8
-37.5 17.5 17.01
-38.5 17.5 16.47
-39.5 17.5 15.26
-40.5 17.5 14.22
-41.5 17.5 12.32
-42.5 17.5 10.61
-43.5 17.5 9.37
-44.5 17.5 8.34
-45.5 17.5 6.92
-46.5 17.5 5.53
-47.5 17.5 4.34
-48.5 17.5 3.33
-49.5 17.5 2.62
-50.5 17.5 1.85
-51.5 17.5 0.97
-31.5 18.5 14.27
-32.5 18.5 14.53
-33.5 18.5 14.76
-34.5 18.5 15.03
-35.5 18.5 15.67
-36.5 18.5 16.85
-37.5 18.5 17.28
-38.5 18.5 16.84
-39.5 18.5 15.67
-40.5 18.5 14.72
-41.5 18.5 12.79
-42.5 18.5 11.01
-43.5 18.5 9.72
-44.5 18.5 8.62
-45.5 18.5 7.09
-46.5 18.5 5.58
-47.5 18.5 4.31
-48.5 18.5 3.33
-49.5 18.5 2.6
-50.5 18.5 1.83
-51.5 18.5 0.96
-33.5 19.5 14.81
-34.5 19.5 14.76
-35.5 19.5 15.48
-36.5 19.5 16.94
-37.5 19.5 17.55
-38.5 19.5 17.22
-39.5 19.5 16.18
-40.5 19.5 15.36
-41.5 19.5 13.47
-42.5 19.5 11.64
-43.5 19.5 10.21
-44.5 19.5 8.9
-45.5 19.5 7.27
-46.5 19.5 5.67
-47.5 19.5 4.3
-48.5 19.5 3.27
-49.5 19.5 2.47
-50.5 19.5 1.68
-51.5 19.5 0.83
-35.5 20.5 15.76
-36.5 20.5 17.29
-37.5 20.5 17.95
-38.5 20.5 17.69
-39.5 20.5 16.73
-40.5 20.5 15.92
-41.5 20.5 14.1
-42.5 20.5 12.2
-43.5 20.5 10.5
-44.5 20.5 8.86
-45.5 20.5 7.23
-46.5 20.5 5.68
-47.5 20.5 4.27
-48.5 20.5 2.99
-49.5 20.5 2.06
-50.5 20.5 1.25
-51.5 20.5 0.51
-35.5 21.5 16.51
-36.5 21.5 17.96
-37.5 21.5 18.54
-38.5 21.5 18.25
-39.5 21.5 17.27
-40.5 21.5 16.12
-41.5 21.5 14.3
-42.5 21.5 12.38
-43.5 21.5 10.53
-44.5 21.5 8.57
-45.5 21.5 7
-46.5 21.5 5.57
-47.5 21.5 4.26
-48.5 21.5 2.97
-49.5 21.5 1.97
-50.5 21.5 1.12
-51.5 21.5 0.39
