-24.5 12.5 16.06
-25.5 12.5 16.32
-26.5 12.5 16.69
-27.5 12.5 17.05
-28.5 12.5 17.3
-29.5 12.5 17.29
-30.5 12.5 17.12
-31.5 12.5 17
-32.5 12.5 16.93
-33.5 12.5 16.84
-34.5 12.5 16.59
-35.5 12.5 16.36
-36.5 12.5 16.45
-37.5 12.5 16.43
-38.5 12.5 16.17
-39.5 12.5 15.6
-40.5 12.5 14.22
-41.5 12.5 12.4
-42.5 12.5 10.57
-43.5 12.5 9.07
-44.5 12.5 7.57
-45.5 12.5 6.88
-46.5 12.5 6.17
-47.5 12.5 5.15
-48.5 12.5 3.8
-49.5 12.5 2.82
-50.5 12.5 1.99
-51.5 12.5 1.2
-24.5 13.5 15.01
-25.5 13.5 15.32
-26.5 13.5 15.73
-27.5 13.5 16.18
-28.5 13.5 16.68
-29.5 13.5 16.88
-30.5 13.5 16.9
-31.5 13.5 16.94
-32.5 13.5 16.85
-33.5 13.5 16.69
-34.5 13.5 16.37
-35.5 13.5 16.11
-36.5 13.5 16.34
-37.5 13.5 16.43
-38.5 13.5 16.26
-39.5 13.5 15.77
-40.5 13.5 14.6
-41.5 13.5 12.77
-42.5 13.5 10.87
-43.5 13.5 9.29
-44.5 13.5 7.71
-45.5 13.5 6.94
-46.5 13.5 6.18
-47.5 13.5 5.18
-48.5 13.5 3.84
-49.5 13.5 2.91
-50.5 13.5 2.06
-51.5 13.5 1.24
-24.5 14.5 14.25
-25.5 14.5 14.57
-26.5 14.5 14.94
-27.5 14.5 15.23
-28.5 14.5 15.83
-29.5 14.5 16.2
-30.5 14.5 16.43
-31.5 14.5 16.68
-32.5 14.5 16.77
-33.5 14.5 16.65
-34.5 14.5 16.34
-35.5 14.5 16.12
-36.5 14.5 16.45
-37.5 14.5 16.65
-38.5 14.5 16.55
-39.5 14.5 16.13
-40.5 14.5 15.08
-41.5 14.5 13.22
-42.5 14.5 11.23
-43.5 14.5 9.56
-44.5 14.5 8
-45.5 14.5 7.12
-46.5 14.5 6.29
-47.5 14.5 5.25
-48.5 14.5 3.95
-49.5 14.5 3.03
-50.5 14.5 2.2
-51.5 14.5 1.33
-24.5 15.5 14.41
-25.5 15.5 14.69
-26.5 15.5 14.81
-27.5 15.5 14.61
-28.5 15.5 14.9
-29.5 15.5 15.23
-30.5 15.5 15.56
-31.5 15.5 16.05
-32.5 15.5 16.47
-33.5 15.5 16.54
-34.5 15.5 16.35
-35.5 15.5 16.25
-36.5 15.5 16.75
-37.5 15.5 17.06
-38.5 15.5 16.97
-39.5 15.5 16.47
-40.5 15.5 15.36
-41.5 15.5 13.4
-42.5 15.5 11.35
-43.5 15.5 9.67
-44.5 15.5 8.26
-45.5 15.5 7.28
-46.5 15.5 6.34
-47.5 15.5 5.28
-48.5 15.5 4.05
-49.5 15.5 3.2
-50.5 15.5 2.39
-51.5 15.5 1.5
-28.5 16.5 13.89
-29.5 16.5 14.05
-30.5 16.5 14.18
-31.5 16.5 14.81
-32.5 16.5 15.72
-33.5 16.5 16.09
-34.5 16.5 16.13
-35.5 16.5 16.29
-36.5 16.5 17.03
-37.5 16.5 17.38
-38.5 16.5 17.14
-39.5 16.5 16.3
-40.5 16.5 15.01
-41.5 16.5 12.97
-42.5 16.5 11.02
-43.5 16.5 9.51
-44.5 16.5 8.32
-45.5 16.5 7.16
-46.5 16.5 6.09
-47.5 16.5 5.1
-48.5 16.5 4.11
-49.5 16.5 3.37
-50.5 16.5 2.6
-51.5 16.5 1.7
-29.5 17.5 13.81
-30.5 17.5 13.28
-31.5 17.5 13.84
-32.5 17.5 14.77
-33.5 17.5 15.27
-34.5 17.5 15.61
-35.5 17.5 16.15
-36.5 17.5 17.23
-37.5 17.5 17.8
-38.5 17.5 17.55
-39.5 17.5 16.57
-40.5 17.5 15.16
-41.5 17.5 13.05
-42.5 17.5 11.09
-43.5 17.5 9.64
-44.5 17.5 8.67
-45.5 17.5 7.4
-46.5 17.5 6.18
-47.5 17.5 5.13
-48.5 17.5 4.18
-49.5 17.5 3.47
-50.5 17.5 2.7
-51.5 17.5 1.81
-31.5 18.5 14.14
-32.5 18.5 14.34
-33.5 18.5 14.64
-34.5 18.5 15.05
-35.5 18.5 15.9
-36.5 18.5 17.3
-37.5 18.5 18.05
-38.5 18.5 17.88
-39.5 18.5 16.87
-40.5 18.5 15.5
-41.5 18.5 13.39
-42.5 18.5 11.43
-43.5 18.5 9.99
-44.5 18.5 9.11
-45.5 18.5 7.75
-46.5 18.5 6.39
-47.5 18.5 5.22
-48.5 18.5 4.26
-49.5 18.5 3.5
-50.5 18.5 2.72
-51.5 18.5 1.83
-33.5 19.5 14.78
-34.5 19.5 14.82
-35.5 19.5 15.76
-36.5 19.5 17.4
-37.5 19.5 18.3
-38.5 19.5 18.17
-39.5 19.5 17.18
-40.5 19.5 15.97
-41.5 19.5 13.91
-42.5 19.5 11.97
-43.5 19.5 10.48
-44.5 19.5 9.51
-45.5 19.5 8.04
-46.5 19.5 6.57
-47.5 19.5 5.31
-48.5 19.5 4.26
-49.5 19.5 3.43
-50.5 19.5 2.6
-51.5 19.5 1.72
-35.5 20.5 16.1
-36.5 20.5 17.87
-37.5 20.5 18.77
-38.5 20.5 18.62
-39.5 20.5 17.67
-40.5 20.5 16.5
-41.5 20.5 14.61
-42.5 20.5 12.7
-43.5 20.5 11.05
-44.5 20.5 9.67
-45.5 20.5 8.17
-46.5 20.5 6.71
-47.5 20.5 5.35
-48.5 20.5 4.14
-49.5 20.5 3.16
-50.5 20.5 2.28
-51.5 20.5 1.47
-35.5 21.5 16.93
-36.5 21.5 18.54
-37.5 21.5 19.3
-38.5 21.5 19.07
-39.5 21.5 18.05
-40.5 21.5 16.69
-41.5 21.5 14.85
-42.5 21.5 12.98
-43.5 21.5 11.21
-44.5 21.5 9.51
-45.5 21.5 8
-46.5 21.5 6.62
-47.5 21.5 5.35
-48.5 21.5 4.14
-49.5 21.5 3.12
-50.5 21.5 2.2
-51.5 21.5 1.39
