-24.5 12.5 16.87
-25.5 12.5 17
-26.5 12.5 17.3
-27.5 12.5 17.79
-28.5 12.5 18.34
-29.5 12.5 18.5
-30.5 12.5 18.47
-31.5 12.5 18.55
-32.5 12.5 18.93
-33.5 12.5 19.2
-34.5 12.5 19.18
-35.5 12.5 19.02
-36.5 12.5 19.13
-37.5 12.5 18.95
-38.5 12.5 18.5
-39.5 12.5 17.57
-40.5 12.5 16.22
-41.5 12.5 14.06
-42.5 12.5 11.99
-43.5 12.5 10.31
-44.5 12.5 9.04
-45.5 12.5 8.34
-46.5 12.5 7.67
-47.5 12.5 6.69
-48.5 12.5 5.46
-49.5 12.5 4.39
-50.5 12.5 3.41
-51.5 12.5 2.47
-24.5 13.5 15.66
-25.5 13.5 15.82
-26.5 13.5 16.21
-27.5 13.5 16.79
-28.5 13.5 17.59
-29.5 13.5 18.02
-30.5 13.5 18.27
-31.5 13.5 18.57
-32.5 13.5 19.12
-33.5 13.5 19.48
-34.5 13.5 19.51
-35.5 13.5 19.36
-36.5 13.5 19.56
-37.5 13.5 19.38
-38.5 13.5 18.84
-39.5 13.5 17.82
-40.5 13.5 16.5
-41.5 13.5 14.25
-42.5 13.5 12.11
-43.5 13.5 10.4
-44.5 13.5 9.08
-45.5 13.5 8.36
-46.5 13.5 7.65
-47.5 13.5 6.66
-48.5 13.5 5.46
-49.5 13.5 4.44
-50.5 13.5 3.47
-51.5 13.5 2.51
-24.5 14.5 14.85
-25.5 14.5 15
-26.5 14.5 15.35
-27.5 14.5 15.75
-28.5 14.5 16.61
-29.5 14.5 17.21
-30.5 14.5 17.69
-31.5 14.5 18.28
-32.5 14.5 19.07
-33.5 14.5 19.6
-34.5 14.5 19.7
-35.5 14.5 19.62
-36.5 14.5 19.89
-37.5 14.5 19.73
-38.5 14.5 19.14
-39.5 14.5 18.12
-40.5 14.5 16.86
-41.5 14.5 14.59
-42.5 14.5 12.4
-43.5 14.5 10.68
-44.5 14.5 9.32
-45.5 14.5 8.56
-46.5 14.5 7.76
-47.5 14.5 6.71
-48.5 14.5 5.53
-49.5 14.5 4.51
-50.5 14.5 3.55
-51.5 14.5 2.58
-24.5 15.5 15.07
-25.5 15.5 15.19
-26.5 15.5 15.3
-27.5 15.5 15.13
-28.5 15.5 15.58
-29.5 15.5 16.13
-30.5 15.5 16.68
-31.5 15.5 17.47
-32.5 15.5 18.55
-33.5 15.5 19.25
-34.5 15.5 19.52
-35.5 15.5 19.6
-36.5 15.5 20.04
-37.5 15.5 19.96
-38.5 15.5 19.36
-39.5 15.5 18.3
-40.5 15.5 17.12
-41.5 15.5 14.89
-42.5 15.5 12.7
-43.5 15.5 11.01
-44.5 15.5 9.66
-45.5 15.5 8.79
-46.5 15.5 7.86
-47.5 15.5 6.75
-48.5 15.5 5.57
-49.5 15.5 4.56
-50.5 15.5 3.62
-51.5 15.5 2.64
-28.5 16.5 14.63
-29.5 16.5 14.97
-30.5 16.5 15.27
-31.5 16.5 16.13
-32.5 16.5 17.5
-33.5 16.5 18.35
-34.5 16.5 18.88
-35.5 16.5 19.3
-36.5 16.5 20.11
-37.5 16.5 20.29
-38.5 16.5 19.75
-39.5 16.5 18.65
-40.5 16.5 17.3
-41.5 16.5 15.07
-42.5 16.5 12.92
-43.5 16.5 11.3
-44.5 16.5 9.99
-45.5 16.5 8.94
-46.5 16.5 7.82
-47.5 16.5 6.64
-48.5 16.5 5.53
-49.5 16.5 4.6
-50.5 16.5 3.7
-51.5 16.5 2.74
-29.5 17.5 14.8
-30.5 17.5 14.35
-31.5 17.5 15.05
-32.5 17.5 16.39
-33.5 17.5 17.3
-34.5 17.5 18.06
-35.5 17.5 18.86
-36.5 17.5 20.04
-37.5 17.5 20.45
-38.5 17.5 19.97
-39.5 17.5 18.87
-40.5 17.5 17.47
-41.5 17.5 15.25
-42.5 17.5 13.13
-43.5 17.5 11.54
-44.5 17.5 10.26
-45.5 17.5 9.08
-46.5 17.5 7.82
-47.5 17.5 6.55
-48.5 17.5 5.44
-49.5 17.5 4.52
-50.5 17.5 3.64
-51.5 17.5 2.68
-31.5 18.5 15.55
-32.5 18.5 16.04
-33.5 18.5 16.63
-34.5 18.5 17.4
-35.5 18.5 18.46
-36.5 18.5 19.96
-37.5 18.5 20.59
-38.5 18.5 20.21
-39.5 18.5 19.12
-40.5 18.5 17.68
-41.5 18.5 15.46
-42.5 18.5 13.3
-43.5 18.5 11.64
-44.5 18.5 10.31
-45.5 18.5 9.04
-46.5 18.5 7.68
-47.5 18.5 6.37
-48.5 18.5 5.29
-49.5 18.5 4.39
-50.5 18.5 3.5
-51.5 18.5 2.6
-33.5 19.5 16.92
-34.5 19.5 17.22
-35.5 19.5 18.35
-36.5 19.5 20.17
-37.5 19.5 21.03
-38.5 19.5 20.73
-39.5 19.5 19.62
-40.5 19.5 18.12
-41.5 19.5 15.84
-42.5 19.5 13.6
-43.5 19.5 11.77
-44.5 19.5 10.24
-45.5 19.5 8.86
-46.5 19.5 7.47
-47.5 19.5 6.18
-48.5 19.5 5.13
-49.5 19.5 4.21
-50.5 19.5 3.31
-51.5 19.5 2.45
-35.5 20.5 18.72
-36.5 20.5 20.95
-37.5 20.5 21.96
-38.5 20.5 21.65
-39.5 20.5 20.42
-40.5 20.5 18.77
-41.5 20.5 16.54
-42.5 20.5 14.23
-43.5 20.5 12.16
-44.5 20.5 10.13
-45.5 20.5 8.69
-46.5 20.5 7.34
-47.5 20.5 6.08
-48.5 20.5 4.94
-49.5 20.5 3.93
-50.5 20.5 2.99
-51.5 20.5 2.18
-35.5 21.5 19.38
-36.5 21.5 21.38
-37.5 21.5 22.25
-38.5 21.5 21.84
-39.5 21.5 20.48
-40.5 21.5 18.63
-41.5 21.5 16.44
-42.5 21.5 14.16
-43.5 21.5 12
-44.5 21.5 9.71
-45.5 21.5 8.27
-46.5 21.5 7.03
-47.5 21.5 5.93
-48.5 21.5 4.9
-49.5 21.5 3.87
-50.5 21.5 2.89
-51.5 21.5 2.04
