-24.5 12.5 15.07
-25.5 12.5 15.16
-26.5 12.5 15.4
-27.5 12.5 15.73
-28.5 12.5 16.04
-29.5 12.5 16.09
-30.5 12.5 16.01
-31.5 12.5 15.85
-32.5 12.5 15.58
-33.5 12.5 15.26
-34.5 12.5 14.97
-35.5 12.5 14.75
-36.5 12.5 14.71
-37.5 12.5 14.42
-38.5 12.5 13.88
-39.5 12.5 13.12
-40.5 12.5 12.44
-41.5 12.5 11.39
-42.5 12.5 10.18
-43.5 12.5 8.85
-44.5 12.5 7.58
-45.5 12.5 6.09
-46.5 12.5 4.84
-47.5 12.5 3.79
-48.5 12.5 2.89
-49.5 12.5 2.02
-50.5 12.5 1.19
-51.5 12.5 0.28
-24.5 13.5 14.02
-25.5 13.5 14.21
-26.5 13.5 14.55
-27.5 13.5 15.02
-28.5 13.5 15.65
-29.5 13.5 15.9
-30.5 13.5 15.98
-31.5 13.5 15.93
-32.5 13.5 15.72
-33.5 13.5 15.38
-34.5 13.5 15.05
-35.5 13.5 14.82
-36.5 13.5 14.86
-37.5 13.5 14.72
-38.5 13.5 14.3
-39.5 13.5 13.71
-40.5 13.5 13.18
-41.5 13.5 12.17
-42.5 13.5 10.91
-43.5 13.5 9.4
-44.5 13.5 7.82
-45.5 13.5 6.17
-46.5 13.5 4.84
-47.5 13.5 3.79
-48.5 13.5 2.89
-49.5 13.5 2.05
-50.5 13.5 1.22
-51.5 13.5 0.28
-24.5 14.5 13.3
-25.5 14.5 13.51
-26.5 14.5 13.89
-27.5 14.5 14.32
-28.5 14.5 15.19
-29.5 14.5 15.61
-30.5 14.5 15.85
-31.5 14.5 16.01
-32.5 14.5 15.97
-33.5 14.5 15.66
-34.5 14.5 15.32
-35.5 14.5 15.08
-36.5 14.5 15.21
-37.5 14.5 15.16
-38.5 14.5 14.85
-39.5 14.5 14.33
-40.5 14.5 13.89
-41.5 14.5 12.84
-42.5 14.5 11.49
-43.5 14.5 9.85
-44.5 14.5 8.06
-45.5 14.5 6.3
-46.5 14.5 4.93
-47.5 14.5 3.89
-48.5 14.5 2.99
-49.5 14.5 2.18
-50.5 14.5 1.33
-51.5 14.5 0.38
-24.5 15.5 13.52
-25.5 15.5 13.72
-26.5 15.5 13.96
-27.5 15.5 13.97
-28.5 15.5 14.72
-29.5 15.5 15.15
-30.5 15.5 15.5
-31.5 15.5 15.86
-32.5 15.5 16.1
-33.5 15.5 15.91
-34.5 15.5 15.61
-35.5 15.5 15.43
-36.5 15.5 15.69
-37.5 15.5 15.76
-38.5 15.5 15.5
-39.5 15.5 14.99
-40.5 15.5 14.5
-41.5 15.5 13.34
-42.5 15.5 11.88
-43.5 15.5 10.15
-44.5 15.5 8.22
-45.5 15.5 6.44
-46.5 15.5 5.03
-47.5 15.5 3.97
-48.5 15.5 3.06
-49.5 15.5 2.3
-50.5 15.5 1.5
-51.5 15.5 0.54
-28.5 16.5 14.27
-29.5 16.5 14.53
-30.5 16.5 14.78
-31.5 16.5 15.28
-32.5 16.5 15.76
-33.5 16.5 15.8
-34.5 16.5 15.69
-35.5 16.5 15.75
-36.5 16.5 16.22
-37.5 16.5 16.47
-38.5 16.5 16.28
-39.5 16.5 15.72
-40.5 16.5 14.96
-41.5 16.5 13.51
-42.5 16.5 11.85
-43.5 16.5 10.08
-44.5 16.5 8.25
-45.5 16.5 6.56
-46.5 16.5 5.15
-47.5 16.5 4.05
-48.5 16.5 3.06
-49.5 16.5 2.39
-50.5 16.5 1.64
-51.5 16.5 0.67
-29.5 17.5 14.55
-30.5 17.5 14.41
-31.5 17.5 14.83
-32.5 17.5 15.31
-33.5 17.5 15.41
-34.5 17.5 15.47
-35.5 17.5 15.74
-36.5 17.5 16.45
-37.5 17.5 16.88
-38.5 17.5 16.77
-39.5 17.5 16.21
-40.5 17.5 15.28
-41.5 17.5 13.67
-42.5 17.5 11.89
-43.5 17.5 10.09
-44.5 17.5 8.23
-45.5 17.5 6.59
-46.5 17.5 5.18
-47.5 17.5 4.05
-48.5 17.5 3.07
-49.5 17.5 2.43
-50.5 17.5 1.7
-51.5 17.5 0.75
-31.5 18.5 15.02
-32.5 18.5 15.16
-33.5 18.5 15.14
-34.5 18.5 15.27
-35.5 18.5 15.72
-36.5 18.5 16.62
-37.5 18.5 17.22
-38.5 18.5 17.17
-39.5 18.5 16.61
-40.5 18.5 15.55
-41.5 18.5 13.83
-42.5 18.5 11.94
-43.5 18.5 10.12
-44.5 18.5 8.25
-45.5 18.5 6.65
-46.5 18.5 5.22
-47.5 18.5 4.06
-48.5 18.5 3.06
-49.5 18.5 2.39
-50.5 18.5 1.66
-51.5 18.5 0.75
-33.5 19.5 15.44
-34.5 19.5 15.48
-35.5 19.5 15.97
-36.5 19.5 16.97
-37.5 19.5 17.64
-38.5 19.5 17.63
-39.5 19.5 17.06
-40.5 19.5 15.86
-41.5 19.5 14.05
-42.5 19.5 12.09
-43.5 19.5 10.25
-44.5 19.5 8.36
-45.5 19.5 6.81
-46.5 19.5 5.37
-47.5 19.5 4.13
-48.5 19.5 3.01
-49.5 19.5 2.25
-50.5 19.5 1.51
-51.5 19.5 0.63
-35.5 20.5 16.89
-36.5 20.5 17.95
-37.5 20.5 18.55
-38.5 20.5 18.47
-39.5 20.5 17.78
-40.5 20.5 16.52
-41.5 20.5 14.6
-42.5 20.5 12.57
-43.5 20.5 10.7
-44.5 20.5 8.83
-45.5 20.5 7.32
-46.5 20.5 5.83
-47.5 20.5 4.38
-48.5 20.5 2.97
-49.5 20.5 2.05
-50.5 20.5 1.24
-51.5 20.5 0.43
-35.5 21.5 17.88
-36.5 21.5 18.77
-37.5 21.5 19.17
-38.5 21.5 18.88
-39.5 21.5 18.04
-40.5 21.5 16.64
-41.5 21.5 14.68
-42.5 21.5 12.66
-43.5 21.5 10.79
-44.5 21.5 8.87
-45.5 21.5 7.4
-46.5 21.5 5.96
-47.5 21.5 4.48
-48.5 21.5 2.97
-49.5 21.5 1.95
-50.5 21.5 1.1
-51.5 21.5 0.31
