-24.5 12.5 14.8
-25.5 12.5 15.01
-26.5 12.5 15.34
-27.5 12.5 15.68
-28.5 12.5 15.89
-29.5 12.5 15.89
-30.5 12.5 15.8
-31.5 12.5 15.66
-32.5 12.5 15.55
-33.5 12.5 15.41
-34.5 12.5 15.23
-35.5 12.5 15.08
-36.5 12.5 14.89
-37.5 12.5 14.47
-38.5 12.5 13.82
-39.5 12.5 12.98
-40.5 12.5 12.08
-41.5 12.5 11.01
-42.5 12.5 9.93
-43.5 12.5 8.84
-44.5 12.5 7.42
-45.5 12.5 6.23
-46.5 12.5 5.14
-47.5 12.5 4.09
-48.5 12.5 2.97
-49.5 12.5 2.16
-50.5 12.5 1.39
-51.5 12.5 0.56
-24.5 13.5 13.68
-25.5 13.5 14.02
-26.5 13.5 14.47
-27.5 13.5 14.97
-28.5 13.5 15.42
-29.5 13.5 15.61
-30.5 13.5 15.66
-31.5 13.5 15.63
-32.5 13.5 15.55
-33.5 13.5 15.39
-34.5 13.5 15.21
-35.5 13.5 15.1
-36.5 13.5 15.01
-37.5 13.5 14.69
-38.5 13.5 14.11
-39.5 13.5 13.34
-40.5 13.5 12.56
-41.5 13.5 11.56
-42.5 13.5 10.49
-43.5 13.5 9.34
-44.5 13.5 7.68
-45.5 13.5 6.35
-46.5 13.5 5.18
-47.5 13.5 4.09
-48.5 13.5 2.95
-49.5 13.5 2.16
-50.5 13.5 1.43
-51.5 13.5 0.54
-24.5 14.5 12.88
-25.5 14.5 13.28
-26.5 14.5 13.77
-27.5 14.5 14.22
-28.5 14.5 14.84
-29.5 14.5 15.18
-30.5 14.5 15.4
-31.5 14.5 15.53
-32.5 14.5 15.66
-33.5 14.5 15.58
-34.5 14.5 15.43
-35.5 14.5 15.38
-36.5 14.5 15.35
-37.5 14.5 15.07
-38.5 14.5 14.52
-39.5 14.5 13.76
-40.5 14.5 13.08
-41.5 14.5 12.06
-42.5 14.5 10.95
-43.5 14.5 9.75
-44.5 14.5 7.96
-45.5 14.5 6.53
-46.5 14.5 5.31
-47.5 14.5 4.18
-48.5 14.5 3.02
-49.5 14.5 2.25
-50.5 14.5 1.52
-51.5 14.5 0.61
-24.5 15.5 13.08
-25.5 15.5 13.44
-26.5 15.5 13.8
-27.5 15.5 13.81
-28.5 15.5 14.23
-29.5 15.5 14.58
-30.5 15.5 14.9
-31.5 15.5 15.24
-32.5 15.5 15.71
-33.5 15.5 15.78
-34.5 15.5 15.71
-35.5 15.5 15.68
-36.5 15.5 15.76
-37.5 15.5 15.52
-38.5 15.5 14.97
-39.5 15.5 14.15
-40.5 15.5 13.51
-41.5 15.5 12.39
-42.5 15.5 11.18
-43.5 15.5 9.93
-44.5 15.5 8.15
-45.5 15.5 6.69
-46.5 15.5 5.43
-47.5 15.5 4.28
-48.5 15.5 3.12
-49.5 15.5 2.39
-50.5 15.5 1.66
-51.5 15.5 0.73
-28.5 16.5 13.61
-29.5 16.5 13.83
-30.5 16.5 14.05
-31.5 16.5 14.55
-32.5 16.5 15.34
-33.5 16.5 15.59
-34.5 16.5 15.61
-35.5 16.5 15.72
-36.5 16.5 16.05
-37.5 16.5 15.9
-38.5 16.5 15.28
-39.5 16.5 14.32
-40.5 16.5 13.5
-41.5 16.5 12.24
-42.5 16.5 10.96
-43.5 16.5 9.82
-44.5 16.5 8.25
-45.5 16.5 6.84
-46.5 16.5 5.52
-47.5 16.5 4.31
-48.5 16.5 3.16
-49.5 16.5 2.47
-50.5 16.5 1.72
-51.5 16.5 0.75
-29.5 17.5 13.77
-30.5 17.5 13.5
-31.5 17.5 13.97
-32.5 17.5 14.83
-33.5 17.5 15.16
-34.5 17.5 15.3
-35.5 17.5 15.63
-36.5 17.5 16.26
-37.5 17.5 16.3
-38.5 17.5 15.72
-39.5 17.5 14.71
-40.5 17.5 13.78
-41.5 17.5 12.33
-42.5 17.5 10.87
-43.5 17.5 9.68
-44.5 17.5 8.25
-45.5 17.5 6.85
-46.5 17.5 5.52
-47.5 17.5 4.32
-48.5 17.5 3.2
-49.5 17.5 2.51
-50.5 17.5 1.76
-51.5 17.5 0.78
-31.5 18.5 14.33
-32.5 18.5 14.64
-33.5 18.5 14.83
-34.5 18.5 15.03
-35.5 18.5 15.56
-36.5 18.5 16.44
-37.5 18.5 16.67
-38.5 18.5 16.15
-39.5 18.5 15.11
-40.5 18.5 14.13
-41.5 18.5 12.52
-42.5 18.5 10.9
-43.5 18.5 9.63
-44.5 18.5 8.3
-45.5 18.5 6.91
-46.5 18.5 5.55
-47.5 18.5 4.34
-48.5 18.5 3.2
-49.5 18.5 2.49
-50.5 18.5 1.72
-51.5 18.5 0.75
-33.5 19.5 15
-34.5 19.5 15.01
-35.5 19.5 15.67
-36.5 19.5 16.63
-37.5 19.5 16.97
-38.5 19.5 16.51
-39.5 19.5 15.43
-40.5 19.5 14.38
-41.5 19.5 12.69
-42.5 19.5 10.98
-43.5 19.5 9.63
-44.5 19.5 8.4
-45.5 19.5 7.01
-46.5 19.5 5.62
-47.5 19.5 4.34
-48.5 19.5 3.14
-49.5 19.5 2.33
-50.5 19.5 1.5
-51.5 19.5 0.59
-35.5 20.5 16.18
-36.5 20.5 17.02
-37.5 20.5 17.3
-38.5 20.5 16.8
-39.5 20.5 15.69
-40.5 20.5 14.47
-41.5 20.5 12.75
-42.5 20.5 11.02
-43.5 20.5 9.64
-44.5 20.5 8.45
-45.5 20.5 7.21
-46.5 20.5 5.88
-47.5 20.5 4.51
-48.5 20.5 3.01
-49.5 20.5 2.03
-50.5 20.5 1.18
-51.5 20.5 0.38
-35.5 21.5 17.07
-36.5 21.5 17.63
-37.5 21.5 17.68
-38.5 21.5 16.97
-39.5 21.5 15.69
-40.5 21.5 14.21
-41.5 21.5 12.51
-42.5 21.5 10.87
-43.5 21.5 9.52
-44.5 21.5 8.29
-45.5 21.5 7.12
-46.5 21.5 5.9
-47.5 21.5 4.57
-48.5 21.5 3.02
-49.5 21.5 1.99
-50.5 21.5 1.1
-51.5 21.5 0.35
