-24.5 12.5 15.15
-25.5 12.5 15.22
-26.5 12.5 15.51
-27.5 12.5 15.97
-28.5 12.5 16.4
-29.5 12.5 16.61
-30.5 12.5 16.64
-31.5 12.5 16.56
-32.5 12.5 16.35
-33.5 12.5 16.13
-34.5 12.5 15.91
-35.5 12.5 15.73
-36.5 12.5 15.55
-37.5 12.5 15.19
-38.5 12.5 14.58
-39.5 12.5 13.8
-40.5 12.5 12.8
-41.5 12.5 11.65
-42.5 12.5 10.33
-43.5 12.5 8.96
-44.5 12.5 7.94
-45.5 12.5 6.6
-46.5 12.5 5.42
-47.5 12.5 4.44
-48.5 12.5 3.6
-49.5 12.5 2.72
-50.5 12.5 1.81
-51.5 12.5 0.8
-24.5 13.5 14.27
-25.5 13.5 14.39
-26.5 13.5 14.74
-27.5 13.5 15.33
-28.5 13.5 16.05
-29.5 13.5 16.45
-30.5 13.5 16.63
-31.5 13.5 16.65
-32.5 13.5 16.52
-33.5 13.5 16.3
-34.5 13.5 16.09
-35.5 13.5 15.97
-36.5 13.5 15.94
-37.5 13.5 15.77
-38.5 13.5 15.34
-39.5 13.5 14.72
-40.5 13.5 13.81
-41.5 13.5 12.63
-42.5 13.5 11.18
-43.5 13.5 9.56
-44.5 13.5 8.16
-45.5 13.5 6.63
-46.5 13.5 5.37
-47.5 13.5 4.4
-48.5 13.5 3.57
-49.5 13.5 2.72
-50.5 13.5 1.78
-51.5 13.5 0.75
-24.5 14.5 13.65
-25.5 14.5 13.78
-26.5 14.5 14.16
-27.5 14.5 14.71
-28.5 14.5 15.59
-29.5 14.5 16.14
-30.5 14.5 16.48
-31.5 14.5 16.69
-32.5 14.5 16.72
-33.5 14.5 16.56
-34.5 14.5 16.37
-35.5 14.5 16.3
-36.5 14.5 16.43
-37.5 14.5 16.43
-38.5 14.5 16.15
-39.5 14.5 15.63
-40.5 14.5 14.75
-41.5 14.5 13.51
-42.5 14.5 11.92
-43.5 14.5 10.1
-44.5 14.5 8.41
-45.5 14.5 6.72
-46.5 14.5 5.39
-47.5 14.5 4.42
-48.5 14.5 3.58
-49.5 14.5 2.75
-50.5 14.5 1.83
-51.5 14.5 0.77
-24.5 15.5 13.9
-25.5 15.5 14
-26.5 15.5 14.3
-27.5 15.5 14.41
-28.5 15.5 15.13
-29.5 15.5 15.66
-30.5 15.5 16.09
-31.5 15.5 16.47
-32.5 15.5 16.72
-33.5 15.5 16.71
-34.5 15.5 16.63
-35.5 15.5 16.68
-36.5 15.5 16.98
-37.5 15.5 17.18
-38.5 15.5 17.05
-39.5 15.5 16.55
-40.5 15.5 15.64
-41.5 15.5 14.22
-42.5 15.5 12.43
-43.5 15.5 10.42
-44.5 15.5 8.5
-45.5 15.5 6.75
-46.5 15.5 5.4
-47.5 15.5 4.42
-48.5 15.5 3.58
-49.5 15.5 2.8
-50.5 15.5 1.89
-51.5 15.5 0.84
-28.5 16.5 14.61
-29.5 16.5 14.93
-30.5 16.5 15.26
-31.5 16.5 15.76
-32.5 16.5 16.3
-33.5 16.5 16.53
-34.5 16.5 16.72
-35.5 16.5 17.07
-36.5 16.5 17.71
-37.5 16.5 18.13
-38.5 16.5 18.11
-39.5 16.5 17.55
-40.5 16.5 16.4
-41.5 16.5 14.64
-42.5 16.5 12.55
-43.5 16.5 10.28
-44.5 16.5 8.17
-45.5 16.5 6.44
-46.5 16.5 5.14
-47.5 16.5 4.18
-48.5 16.5 3.41
-49.5 16.5 2.7
-50.5 16.5 1.81
-51.5 16.5 0.8
-29.5 17.5 14.92
-30.5 17.5 14.77
-31.5 17.5 15.19
-32.5 17.5 15.81
-33.5 17.5 16.17
-34.5 17.5 16.57
-35.5 17.5 17.2
-36.5 17.5 18.03
-37.5 17.5 18.6
-38.5 17.5 18.63
-39.5 17.5 18.04
-40.5 17.5 16.65
-41.5 17.5 14.69
-42.5 17.5 12.43
-43.5 17.5 10.07
-44.5 17.5 7.93
-45.5 17.5 6.25
-46.5 17.5 4.97
-47.5 17.5 4.05
-48.5 17.5 3.35
-49.5 17.5 2.66
-50.5 17.5 1.81
-51.5 17.5 0.83
-31.5 18.5 15.44
-32.5 18.5 15.63
-33.5 18.5 15.93
-34.5 18.5 16.5
-35.5 18.5 17.29
-36.5 18.5 18.25
-37.5 18.5 18.92
-38.5 18.5 18.98
-39.5 18.5 18.32
-40.5 18.5 16.78
-41.5 18.5 14.69
-42.5 18.5 12.34
-43.5 18.5 9.96
-44.5 18.5 7.83
-45.5 18.5 6.17
-46.5 18.5 4.89
-47.5 18.5 3.93
-48.5 18.5 3.27
-49.5 18.5 2.56
-50.5 18.5 1.74
-51.5 18.5 0.79
-33.5 19.5 16.48
-34.5 19.5 16.88
-35.5 19.5 17.67
-36.5 19.5 18.65
-37.5 19.5 19.32
-38.5 19.5 19.35
-39.5 19.5 18.61
-40.5 19.5 16.9
-41.5 19.5 14.73
-42.5 19.5 12.35
-43.5 19.5 9.99
-44.5 19.5 7.89
-45.5 19.5 6.25
-46.5 19.5 4.96
-47.5 19.5 3.91
-48.5 19.5 3.18
-49.5 19.5 2.39
-50.5 19.5 1.54
-51.5 19.5 0.67
-35.5 20.5 18.42
-36.5 20.5 19.36
-37.5 20.5 19.84
-38.5 20.5 19.69
-39.5 20.5 18.86
-40.5 20.5 17.17
-41.5 20.5 14.92
-42.5 20.5 12.49
-43.5 20.5 10.14
-44.5 20.5 8
-45.5 20.5 6.53
-46.5 20.5 5.31
-47.5 20.5 4.17
-48.5 20.5 2.93
-49.5 20.5 2.02
-50.5 20.5 1.2
-51.5 20.5 0.43
-35.5 21.5 19.19
-36.5 21.5 19.87
-37.5 21.5 20.14
-38.5 21.5 19.82
-39.5 21.5 18.88
-40.5 21.5 17.13
-41.5 21.5 14.91
-42.5 21.5 12.55
-43.5 21.5 10.27
-44.5 21.5 8.11
-45.5 21.5 6.71
-46.5 21.5 5.52
-47.5 21.5 4.34
-48.5 21.5 2.95
-49.5 21.5 1.95
-50.5 21.5 1.08
-51.5 21.5 0.35
