-24.5 12.5 16.07
-25.5 12.5 16.21
-26.5 12.5 16.52
-27.5 12.5 16.97
-28.5 12.5 17.51
-29.5 12.5 17.71
-30.5 12.5 17.72
-31.5 12.5 17.8
-32.5 12.5 18.17
-33.5 12.5 18.26
-34.5 12.5 18.02
-35.5 12.5 17.65
-36.5 12.5 17.57
-37.5 12.5 17.13
-38.5 12.5 16.44
-39.5 12.5 15.46
-40.5 12.5 14.18
-41.5 12.5 12.34
-42.5 12.5 10.58
-43.5 12.5 9.23
-44.5 12.5 8.21
-45.5 12.5 7.47
-46.5 12.5 6.76
-47.5 12.5 5.77
-48.5 12.5 4.43
-49.5 12.5 3.41
-50.5 12.5 2.51
-51.5 12.5 1.68
-24.5 13.5 14.92
-25.5 13.5 15.1
-26.5 13.5 15.48
-27.5 13.5 16.05
-28.5 13.5 16.84
-29.5 13.5 17.3
-30.5 13.5 17.56
-31.5 13.5 17.84
-32.5 13.5 18.23
-33.5 13.5 18.35
-34.5 13.5 18.1
-35.5 13.5 17.72
-36.5 13.5 17.76
-37.5 13.5 17.38
-38.5 13.5 16.72
-39.5 13.5 15.8
-40.5 13.5 14.64
-41.5 13.5 12.75
-42.5 13.5 10.92
-43.5 13.5 9.5
-44.5 13.5 8.35
-45.5 13.5 7.54
-46.5 13.5 6.75
-47.5 13.5 5.73
-48.5 13.5 4.39
-49.5 13.5 3.41
-50.5 13.5 2.51
-51.5 13.5 1.66
-24.5 14.5 14.13
-25.5 14.5 14.32
-26.5 14.5 14.68
-27.5 14.5 15.09
-28.5 14.5 15.92
-29.5 14.5 16.56
-30.5 14.5 17.06
-31.5 14.5 17.57
-32.5 14.5 18.19
-33.5 14.5 18.39
-34.5 14.5 18.22
-35.5 14.5 17.9
-36.5 14.5 18.1
-37.5 14.5 17.84
-38.5 14.5 17.25
-39.5 14.5 16.38
-40.5 14.5 15.3
-41.5 14.5 13.38
-42.5 14.5 11.44
-43.5 14.5 9.92
-44.5 14.5 8.67
-45.5 14.5 7.76
-46.5 14.5 6.87
-47.5 14.5 5.78
-48.5 14.5 4.46
-49.5 14.5 3.47
-50.5 14.5 2.58
-51.5 14.5 1.7
-24.5 15.5 14.33
-25.5 15.5 14.49
-26.5 15.5 14.64
-27.5 15.5 14.5
-28.5 15.5 14.97
-29.5 15.5 15.56
-30.5 15.5 16.14
-31.5 15.5 16.88
-32.5 15.5 17.78
-33.5 15.5 18.17
-34.5 15.5 18.14
-35.5 15.5 18
-36.5 15.5 18.48
-37.5 15.5 18.42
-38.5 15.5 17.9
-39.5 15.5 17.05
-40.5 15.5 15.97
-41.5 15.5 13.97
-42.5 15.5 11.95
-43.5 15.5 10.35
-44.5 15.5 9.01
-45.5 15.5 8
-46.5 15.5 6.97
-47.5 15.5 5.82
-48.5 15.5 4.52
-49.5 15.5 3.56
-50.5 15.5 2.7
-51.5 15.5 1.81
-28.5 16.5 14.05
-29.5 16.5 14.42
-30.5 16.5 14.78
-31.5 16.5 15.63
-32.5 16.5 16.88
-33.5 16.5 17.47
-34.5 16.5 17.71
-35.5 16.5 17.89
-36.5 16.5 18.81
-37.5 16.5 19.05
-38.5 16.5 18.62
-39.5 16.5 17.63
-40.5 16.5 16.3
-41.5 16.5 14.14
-42.5 16.5 12.04
-43.5 16.5 10.44
-44.5 16.5 9.19
-45.5 16.5 8
-46.5 16.5 6.8
-47.5 16.5 5.6
-48.5 16.5 4.46
-49.5 16.5 3.6
-50.5 16.5 2.79
-51.5 16.5 1.95
-29.5 17.5 14.27
-30.5 17.5 13.89
-31.5 17.5 14.64
-32.5 17.5 15.89
-33.5 17.5 16.62
-34.5 17.5 17.13
-35.5 17.5 17.73
-36.5 17.5 19.05
-37.5 17.5 19.53
-38.5 17.5 19.13
-39.5 17.5 18.02
-40.5 17.5 16.5
-41.5 17.5 14.27
-42.5 17.5 12.17
-43.5 17.5 10.63
-44.5 17.5 9.51
-45.5 17.5 8.23
-46.5 17.5 6.9
-47.5 17.5 5.62
-48.5 17.5 4.44
-49.5 17.5 3.62
-50.5 17.5 2.82
-51.5 17.5 1.99
-31.5 18.5 15.05
-32.5 18.5 15.47
-33.5 18.5 15.97
-34.5 18.5 16.6
-35.5 18.5 17.54
-36.5 18.5 19.13
-37.5 18.5 19.8
-38.5 18.5 19.45
-39.5 18.5 18.25
-40.5 18.5 16.62
-41.5 18.5 14.35
-42.5 18.5 12.26
-43.5 18.5 10.76
-44.5 18.5 9.79
-45.5 18.5 8.43
-46.5 18.5 7
-47.5 18.5 5.65
-48.5 18.5 4.42
-49.5 18.5 3.57
-50.5 18.5 2.79
-51.5 18.5 1.97
-33.5 19.5 16.2
-34.5 19.5 16.38
-35.5 19.5 17.47
-36.5 19.5 19.25
-37.5 19.5 20.06
-38.5 19.5 19.72
-39.5 19.5 18.46
-40.5 19.5 16.79
-41.5 19.5 14.53
-42.5 19.5 12.46
-43.5 19.5 10.93
-44.5 19.5 9.97
-45.5 19.5 8.54
-46.5 19.5 7.06
-47.5 19.5 5.67
-48.5 19.5 4.36
-49.5 19.5 3.49
-50.5 19.5 2.68
-51.5 19.5 1.87
-35.5 20.5 17.88
-36.5 20.5 19.69
-37.5 20.5 20.47
-38.5 20.5 20.05
-39.5 20.5 18.7
-40.5 20.5 16.98
-41.5 20.5 14.85
-42.5 20.5 12.81
-43.5 20.5 11.12
-44.5 20.5 9.88
-45.5 20.5 8.4
-46.5 20.5 6.96
-47.5 20.5 5.58
-48.5 20.5 4.21
-49.5 20.5 3.18
-50.5 20.5 2.31
-51.5 20.5 1.56
-35.5 21.5 18.63
-36.5 21.5 20.25
-37.5 21.5 20.88
-38.5 21.5 20.36
-39.5 21.5 18.89
-40.5 21.5 16.97
-41.5 21.5 14.9
-42.5 21.5 12.92
-43.5 21.5 11.14
-44.5 21.5 9.62
-45.5 21.5 8.13
-46.5 21.5 6.77
-47.5 21.5 5.48
-48.5 21.5 4.17
-49.5 21.5 3.1
-50.5 21.5 2.18
-51.5 21.5 1.41
