-24.5 12.5 15.31
-25.5 12.5 15.46
-26.5 12.5 15.72
-27.5 12.5 16.01
-28.5 12.5 16.21
-29.5 12.5 16.22
-30.5 12.5 16.11
-31.5 12.5 15.96
-32.5 12.5 15.8
-33.5 12.5 15.63
-34.5 12.5 15.42
-35.5 12.5 15.3
-36.5 12.5 15.19
-37.5 12.5 14.85
-38.5 12.5 14.24
-39.5 12.5 13.38
-40.5 12.5 12.35
-41.5 12.5 11.19
-42.5 12.5 10.05
-43.5 12.5 9
-44.5 12.5 7.55
-45.5 12.5 6.36
-46.5 12.5 5.21
-47.5 12.5 4.06
-48.5 12.5 2.85
-49.5 12.5 2.05
-50.5 12.5 1.33
-51.5 12.5 0.55
-24.5 13.5 14.16
-25.5 13.5 14.44
-26.5 13.5 14.82
-27.5 13.5 15.27
-28.5 13.5 15.73
-29.5 13.5 15.93
-30.5 13.5 15.97
-31.5 13.5 15.91
-32.5 13.5 15.74
-33.5 13.5 15.55
-34.5 13.5 15.33
-35.5 13.5 15.28
-36.5 13.5 15.34
-37.5 13.5 15.15
-38.5 13.5 14.64
-39.5 13.5 13.85
-40.5 13.5 12.93
-41.5 13.5 11.81
-42.5 13.5 10.67
-43.5 13.5 9.54
-44.5 13.5 7.87
-45.5 13.5 6.54
-46.5 13.5 5.32
-47.5 13.5 4.13
-48.5 13.5 2.89
-49.5 13.5 2.1
-50.5 13.5 1.41
-51.5 13.5 0.57
-24.5 14.5 13.3
-25.5 14.5 13.65
-26.5 14.5 14.08
-27.5 14.5 14.5
-28.5 14.5 15.14
-29.5 14.5 15.48
-30.5 14.5 15.71
-31.5 14.5 15.81
-32.5 14.5 15.81
-33.5 14.5 15.69
-34.5 14.5 15.53
-35.5 14.5 15.55
-36.5 14.5 15.68
-37.5 14.5 15.58
-38.5 14.5 15.13
-39.5 14.5 14.35
-40.5 14.5 13.49
-41.5 14.5 12.35
-42.5 14.5 11.16
-43.5 14.5 9.98
-44.5 14.5 8.19
-45.5 14.5 6.78
-46.5 14.5 5.5
-47.5 14.5 4.26
-48.5 14.5 2.99
-49.5 14.5 2.24
-50.5 14.5 1.56
-51.5 14.5 0.7
-24.5 15.5 13.5
-25.5 15.5 13.8
-26.5 15.5 14.08
-27.5 15.5 14.05
-28.5 15.5 14.5
-29.5 15.5 14.85
-30.5 15.5 15.16
-31.5 15.5 15.48
-32.5 15.5 15.8
-33.5 15.5 15.83
-34.5 15.5 15.77
-35.5 15.5 15.86
-36.5 15.5 16.1
-37.5 15.5 16.06
-38.5 15.5 15.6
-39.5 15.5 14.81
-40.5 15.5 13.92
-41.5 15.5 12.69
-42.5 15.5 11.4
-43.5 15.5 10.18
-44.5 15.5 8.41
-45.5 15.5 6.96
-46.5 15.5 5.63
-47.5 15.5 4.39
-48.5 15.5 3.12
-49.5 15.5 2.43
-50.5 15.5 1.74
-51.5 15.5 0.85
-28.5 16.5 13.84
-29.5 16.5 14.08
-30.5 16.5 14.31
-31.5 16.5 14.8
-32.5 16.5 15.49
-33.5 16.5 15.69
-34.5 16.5 15.69
-35.5 16.5 15.8
-36.5 16.5 16.38
-37.5 16.5 16.5
-38.5 16.5 16.05
-39.5 16.5 15.14
-40.5 16.5 14.22
-41.5 16.5 12.68
-42.5 16.5 11.17
-43.5 16.5 9.95
-44.5 16.5 8.47
-45.5 16.5 7.08
-46.5 16.5 5.73
-47.5 16.5 4.47
-48.5 16.5 3.22
-49.5 16.5 2.54
-50.5 16.5 1.83
-51.5 16.5 0.93
-29.5 17.5 14
-30.5 17.5 13.72
-31.5 17.5 14.17
-32.5 17.5 14.98
-33.5 17.5 15.25
-34.5 17.5 15.38
-35.5 17.5 15.71
-36.5 17.5 16.65
-37.5 17.5 16.97
-38.5 17.5 16.56
-39.5 17.5 15.59
-40.5 17.5 14.55
-41.5 17.5 12.77
-42.5 17.5 11.04
-43.5 17.5 9.72
-44.5 17.5 8.37
-45.5 17.5 7
-46.5 17.5 5.64
-47.5 17.5 4.42
-48.5 17.5 3.24
-49.5 17.5 2.58
-50.5 17.5 1.87
-51.5 17.5 0.95
-31.5 18.5 14.49
-32.5 18.5 14.74
-33.5 18.5 14.91
-34.5 18.5 15.07
-35.5 18.5 15.61
-36.5 18.5 16.88
-37.5 18.5 17.38
-38.5 18.5 17.06
-39.5 18.5 16.06
-40.5 18.5 14.93
-41.5 18.5 12.97
-42.5 18.5 11.05
-43.5 18.5 9.6
-44.5 18.5 8.36
-45.5 18.5 6.97
-46.5 18.5 5.61
-47.5 18.5 4.39
-48.5 18.5 3.24
-49.5 18.5 2.55
-50.5 18.5 1.83
-51.5 18.5 0.9
-33.5 19.5 15.03
-34.5 19.5 15.01
-35.5 19.5 15.69
-36.5 19.5 17.1
-37.5 19.5 17.73
-38.5 19.5 17.46
-39.5 19.5 16.44
-40.5 19.5 15.24
-41.5 19.5 13.18
-42.5 19.5 11.13
-43.5 19.5 9.54
-44.5 19.5 8.4
-45.5 19.5 7
-46.5 19.5 5.61
-47.5 19.5 4.35
-48.5 19.5 3.16
-49.5 19.5 2.39
-50.5 19.5 1.62
-51.5 19.5 0.75
-35.5 20.5 16.05
-36.5 20.5 17.3
-37.5 20.5 17.85
-38.5 20.5 17.5
-39.5 20.5 16.44
-40.5 20.5 15.22
-41.5 20.5 13.16
-42.5 20.5 11.11
-43.5 20.5 9.44
-44.5 20.5 8.31
-45.5 20.5 7
-46.5 20.5 5.67
-47.5 20.5 4.34
-48.5 20.5 2.97
-49.5 20.5 2
-50.5 20.5 1.2
-51.5 20.5 0.47
-35.5 21.5 16.96
-36.5 21.5 17.85
-37.5 21.5 18.15
-38.5 21.5 17.62
-39.5 21.5 16.38
-40.5 21.5 14.85
-41.5 21.5 12.87
-42.5 21.5 10.95
-43.5 21.5 9.32
-44.5 21.5 8.14
-45.5 21.5 6.87
-46.5 21.5 5.63
-47.5 21.5 4.34
-48.5 21.5 2.95
-49.5 21.5 1.91
-50.5 21.5 1.07
-51.5 21.5 0.38
