-24.5 12.5 14.83
-25.5 12.5 15.02
-26.5 12.5 15.34
-27.5 12.5 15.71
-28.5 12.5 15.99
-29.5 12.5 16.05
-30.5 12.5 15.97
-31.5 12.5 15.81
-32.5 12.5 15.64
-33.5 12.5 15.36
-34.5 12.5 15.05
-35.5 12.5 14.88
-36.5 12.5 15
-37.5 12.5 14.89
-38.5 12.5 14.49
-39.5 12.5 13.74
-40.5 12.5 12.6
-41.5 12.5 11.22
-42.5 12.5 9.93
-43.5 12.5 8.83
-44.5 12.5 7.59
-45.5 12.5 6.66
-46.5 12.5 5.73
-47.5 12.5 4.68
-48.5 12.5 3.52
-49.5 12.5 2.68
-50.5 12.5 1.95
-51.5 12.5 1.17
-24.5 13.5 13.82
-25.5 13.5 14.11
-26.5 13.5 14.51
-27.5 13.5 14.98
-28.5 13.5 15.51
-29.5 13.5 15.77
-30.5 13.5 15.85
-31.5 13.5 15.81
-32.5 13.5 15.63
-33.5 13.5 15.3
-34.5 13.5 14.97
-35.5 13.5 14.85
-36.5 13.5 15.16
-37.5 13.5 15.21
-38.5 13.5 14.85
-39.5 13.5 14.14
-40.5 13.5 13.03
-41.5 13.5 11.66
-42.5 13.5 10.34
-43.5 13.5 9.21
-44.5 13.5 7.83
-45.5 13.5 6.77
-46.5 13.5 5.77
-47.5 13.5 4.68
-48.5 13.5 3.51
-49.5 13.5 2.72
-50.5 13.5 1.99
-51.5 13.5 1.18
-24.5 14.5 13.1
-25.5 14.5 13.43
-26.5 14.5 13.85
-27.5 14.5 14.24
-28.5 14.5 14.92
-29.5 14.5 15.34
-30.5 14.5 15.59
-31.5 14.5 15.75
-32.5 14.5 15.72
-33.5 14.5 15.47
-34.5 14.5 15.17
-35.5 14.5 15.11
-36.5 14.5 15.47
-37.5 14.5 15.57
-38.5 14.5 15.24
-39.5 14.5 14.49
-40.5 14.5 13.43
-41.5 14.5 12.03
-42.5 14.5 10.67
-43.5 14.5 9.52
-44.5 14.5 8.09
-45.5 14.5 6.96
-46.5 14.5 5.88
-47.5 14.5 4.76
-48.5 14.5 3.56
-49.5 14.5 2.79
-50.5 14.5 2.08
-51.5 14.5 1.25
-24.5 15.5 13.28
-25.5 15.5 13.59
-26.5 15.5 13.86
-27.5 15.5 13.83
-28.5 15.5 14.31
-29.5 15.5 14.72
-30.5 15.5 15.07
-31.5 15.5 15.43
-32.5 15.5 15.64
-33.5 15.5 15.57
-34.5 15.5 15.4
-35.5 15.5 15.44
-36.5 15.5 15.8
-37.5 15.5 15.94
-38.5 15.5 15.55
-39.5 15.5 14.73
-40.5 15.5 13.63
-41.5 15.5 12.15
-42.5 15.5 10.74
-43.5 15.5 9.6
-44.5 15.5 8.25
-45.5 15.5 7.06
-46.5 15.5 5.92
-47.5 15.5 4.78
-48.5 15.5 3.62
-49.5 15.5 2.91
-50.5 15.5 2.22
-51.5 15.5 1.39
-28.5 16.5 13.72
-29.5 16.5 13.97
-30.5 16.5 14.19
-31.5 16.5 14.69
-32.5 16.5 15.19
-33.5 16.5 15.28
-34.5 16.5 15.22
-35.5 16.5 15.34
-36.5 16.5 16.03
-37.5 16.5 16.37
-38.5 16.5 16.03
-39.5 16.5 15.09
-40.5 16.5 14.02
-41.5 16.5 12.17
-42.5 16.5 10.49
-43.5 16.5 9.26
-44.5 16.5 8.13
-45.5 16.5 6.94
-46.5 16.5 5.77
-47.5 16.5 4.69
-48.5 16.5 3.62
-49.5 16.5 2.95
-50.5 16.5 2.26
-51.5 16.5 1.39
-29.5 17.5 13.91
-30.5 17.5 13.67
-31.5 17.5 14.08
-32.5 17.5 14.59
-33.5 17.5 14.75
-34.5 17.5 14.84
-35.5 17.5 15.22
-36.5 17.5 16.3
-37.5 17.5 16.87
-38.5 17.5 16.6
-39.5 17.5 15.6
-40.5 17.5 14.43
-41.5 17.5 12.33
-42.5 17.5 10.44
-43.5 17.5 9.08
-44.5 17.5 8.03
-45.5 17.5 6.8
-46.5 17.5 5.61
-47.5 17.5 4.57
-48.5 17.5 3.57
-49.5 17.5 2.97
-50.5 17.5 2.27
-51.5 17.5 1.39
-31.5 18.5 14.27
-32.5 18.5 14.38
-33.5 18.5 14.36
-34.5 18.5 14.47
-35.5 18.5 15.06
-36.5 18.5 16.56
-37.5 18.5 17.38
-38.5 18.5 17.22
-39.5 18.5 16.28
-40.5 18.5 15.02
-41.5 18.5 12.76
-42.5 18.5 10.66
-43.5 18.5 9.12
-44.5 18.5 8.04
-45.5 18.5 6.77
-46.5 18.5 5.54
-47.5 18.5 4.51
-48.5 18.5 3.53
-49.5 18.5 2.91
-50.5 18.5 2.2
-51.5 18.5 1.33
-33.5 19.5 14.47
-34.5 19.5 14.42
-35.5 19.5 15.08
-36.5 19.5 16.89
-37.5 19.5 17.89
-38.5 19.5 17.88
-39.5 19.5 16.97
-40.5 19.5 15.68
-41.5 19.5 13.32
-42.5 19.5 11.05
-43.5 19.5 9.28
-44.5 19.5 8.11
-45.5 19.5 6.78
-46.5 19.5 5.52
-47.5 19.5 4.46
-48.5 19.5 3.43
-49.5 19.5 2.7
-50.5 19.5 1.97
-51.5 19.5 1.14
-35.5 20.5 15.56
-36.5 20.5 17.46
-37.5 20.5 18.52
-38.5 20.5 18.48
-39.5 20.5 17.55
-40.5 20.5 16.13
-41.5 20.5 13.77
-42.5 20.5 11.41
-43.5 20.5 9.4
-44.5 20.5 8.05
-45.5 20.5 6.69
-46.5 20.5 5.46
-47.5 20.5 4.3
-48.5 20.5 3.14
-49.5 20.5 2.22
-50.5 20.5 1.41
-51.5 20.5 0.7
-35.5 21.5 16.46
-36.5 21.5 18.05
-37.5 21.5 18.89
-38.5 21.5 18.71
-39.5 21.5 17.62
-40.5 21.5 15.85
-41.5 21.5 13.57
-42.5 21.5 11.3
-43.5 21.5 9.28
-44.5 21.5 7.85
-45.5 21.5 6.51
-46.5 21.5 5.36
-47.5 21.5 4.26
-48.5 21.5 3.07
-49.5 21.5 2.08
-50.5 21.5 1.28
-51.5 21.5 0.6
