-24.5 12.5 14.96
-25.5 12.5 15.08
-26.5 12.5 15.35
-27.5 12.5 15.68
-28.5 12.5 15.97
-29.5 12.5 15.93
-30.5 12.5 15.76
-31.5 12.5 15.55
-32.5 12.5 15.22
-33.5 12.5 14.93
-34.5 12.5 14.68
-35.5 12.5 14.5
-36.5 12.5 14.55
-37.5 12.5 14.18
-38.5 12.5 13.55
-39.5 12.5 12.67
-40.5 12.5 11.79
-41.5 12.5 10.69
-42.5 12.5 9.54
-43.5 12.5 8.35
-44.5 12.5 7.17
-45.5 12.5 5.85
-46.5 12.5 4.73
-47.5 12.5 3.75
-48.5 12.5 2.81
-49.5 12.5 1.97
-50.5 12.5 1.18
-51.5 12.5 0.31
-24.5 13.5 13.84
-25.5 13.5 14.05
-26.5 13.5 14.42
-27.5 13.5 14.89
-28.5 13.5 15.47
-29.5 13.5 15.64
-30.5 13.5 15.65
-31.5 13.5 15.55
-32.5 13.5 15.33
-33.5 13.5 15.02
-34.5 13.5 14.76
-35.5 13.5 14.6
-36.5 13.5 14.72
-37.5 13.5 14.47
-38.5 13.5 13.92
-39.5 13.5 13.14
-40.5 13.5 12.4
-41.5 13.5 11.35
-42.5 13.5 10.18
-43.5 13.5 8.85
-44.5 13.5 7.38
-45.5 13.5 5.9
-46.5 13.5 4.71
-47.5 13.5 3.72
-48.5 13.5 2.8
-49.5 13.5 1.99
-50.5 13.5 1.22
-51.5 13.5 0.32
-24.5 14.5 13.05
-25.5 14.5 13.28
-26.5 14.5 13.67
-27.5 14.5 14.07
-28.5 14.5 14.89
-29.5 14.5 15.22
-30.5 14.5 15.42
-31.5 14.5 15.53
-32.5 14.5 15.56
-33.5 14.5 15.32
-34.5 14.5 15.07
-35.5 14.5 14.91
-36.5 14.5 15.1
-37.5 14.5 14.91
-38.5 14.5 14.42
-39.5 14.5 13.68
-40.5 14.5 13.03
-41.5 14.5 11.95
-42.5 14.5 10.71
-43.5 14.5 9.27
-44.5 14.5 7.62
-45.5 14.5 6.03
-46.5 14.5 4.77
-47.5 14.5 3.77
-48.5 14.5 2.87
-49.5 14.5 2.1
-50.5 14.5 1.33
-51.5 14.5 0.43
-24.5 15.5 13.28
-25.5 15.5 13.47
-26.5 15.5 13.68
-27.5 15.5 13.63
-28.5 15.5 14.28
-29.5 15.5 14.65
-30.5 15.5 14.97
-31.5 15.5 15.31
-32.5 15.5 15.65
-33.5 15.5 15.57
-34.5 15.5 15.39
-35.5 15.5 15.3
-36.5 15.5 15.61
-37.5 15.5 15.49
-38.5 15.5 15.01
-39.5 15.5 14.24
-40.5 15.5 13.59
-41.5 15.5 12.4
-42.5 15.5 11.06
-43.5 15.5 9.56
-44.5 15.5 7.81
-45.5 15.5 6.18
-46.5 15.5 4.88
-47.5 15.5 3.84
-48.5 15.5 2.93
-49.5 15.5 2.22
-50.5 15.5 1.49
-51.5 15.5 0.57
-28.5 16.5 13.71
-29.5 16.5 13.91
-30.5 16.5 14.14
-31.5 16.5 14.65
-32.5 16.5 15.31
-33.5 16.5 15.46
-34.5 16.5 15.44
-35.5 16.5 15.55
-36.5 16.5 16.09
-37.5 16.5 16.12
-38.5 16.5 15.67
-39.5 16.5 14.83
-40.5 16.5 14.03
-41.5 16.5 12.64
-42.5 16.5 11.18
-43.5 16.5 9.67
-44.5 16.5 7.96
-45.5 16.5 6.3
-46.5 16.5 4.93
-47.5 16.5 3.81
-48.5 16.5 2.91
-49.5 16.5 2.33
-50.5 16.5 1.68
-51.5 16.5 0.79
-29.5 17.5 13.9
-30.5 17.5 13.72
-31.5 17.5 14.17
-32.5 17.5 14.8
-33.5 17.5 15
-34.5 17.5 15.13
-35.5 17.5 15.44
-36.5 17.5 16.2
-37.5 17.5 16.38
-38.5 17.5 15.96
-39.5 17.5 15.06
-40.5 17.5 14.15
-41.5 17.5 12.61
-42.5 17.5 11.06
-43.5 17.5 9.59
-44.5 17.5 7.97
-45.5 17.5 6.36
-46.5 17.5 4.97
-47.5 17.5 3.83
-48.5 17.5 2.93
-49.5 17.5 2.37
-50.5 17.5 1.74
-51.5 17.5 0.87
-31.5 18.5 14.43
-32.5 18.5 14.64
-33.5 18.5 14.66
-34.5 18.5 14.83
-35.5 18.5 15.31
-36.5 18.5 16.22
-37.5 18.5 16.55
-38.5 18.5 16.15
-39.5 18.5 15.23
-40.5 18.5 14.28
-41.5 18.5 12.64
-42.5 18.5 11.01
-43.5 18.5 9.55
-44.5 18.5 8.02
-45.5 18.5 6.46
-46.5 18.5 5.05
-47.5 18.5 3.87
-48.5 18.5 2.93
-49.5 18.5 2.35
-50.5 18.5 1.72
-51.5 18.5 0.87
-33.5 19.5 14.91
-34.5 19.5 14.91
-35.5 19.5 15.4
-36.5 19.5 16.39
-37.5 19.5 16.79
-38.5 19.5 16.42
-39.5 19.5 15.47
-40.5 19.5 14.44
-41.5 19.5 12.73
-42.5 19.5 11.05
-43.5 19.5 9.6
-44.5 19.5 8.11
-45.5 19.5 6.6
-46.5 19.5 5.18
-47.5 19.5 3.95
-48.5 19.5 2.87
-49.5 19.5 2.2
-50.5 19.5 1.56
-51.5 19.5 0.77
-35.5 20.5 16.15
-36.5 20.5 17.14
-37.5 20.5 17.48
-38.5 20.5 17.07
-39.5 20.5 16.1
-40.5 20.5 14.96
-41.5 20.5 13.15
-42.5 20.5 11.41
-43.5 20.5 9.94
-44.5 20.5 8.48
-45.5 20.5 7.06
-46.5 20.5 5.63
-47.5 20.5 4.21
-48.5 20.5 2.82
-49.5 20.5 1.97
-50.5 20.5 1.24
-51.5 20.5 0.5
-35.5 21.5 17.06
-36.5 21.5 17.88
-37.5 21.5 18.01
-38.5 21.5 17.43
-39.5 21.5 16.3
-40.5 21.5 14.98
-41.5 21.5 13.13
-42.5 21.5 11.42
-43.5 21.5 9.96
-44.5 21.5 8.44
-45.5 21.5 7.09
-46.5 21.5 5.73
-47.5 21.5 4.3
-48.5 21.5 2.81
-49.5 21.5 1.87
-50.5 21.5 1.09
-51.5 21.5 0.39
