-24.5 12.5 14.99
-25.5 12.5 15.25
-26.5 12.5 15.63
-27.5 12.5 15.99
-28.5 12.5 16.27
-29.5 12.5 16.28
-30.5 12.5 16.15
-31.5 12.5 15.98
-32.5 12.5 15.66
-33.5 12.5 15.39
-34.5 12.5 15.11
-35.5 12.5 14.88
-36.5 12.5 14.71
-37.5 12.5 14.3
-38.5 12.5 13.64
-39.5 12.5 12.81
-40.5 12.5 11.92
-41.5 12.5 10.84
-42.5 12.5 9.71
-43.5 12.5 8.53
-44.5 12.5 7.22
-45.5 12.5 5.96
-46.5 12.5 4.85
-47.5 12.5 3.85
-48.5 12.5 2.83
-49.5 12.5 1.99
-50.5 12.5 1.2
-51.5 12.5 0.37
-24.5 13.5 13.84
-25.5 13.5 14.18
-26.5 13.5 14.67
-27.5 13.5 15.19
-28.5 13.5 15.78
-29.5 13.5 15.99
-30.5 13.5 16.05
-31.5 13.5 15.99
-32.5 13.5 15.76
-33.5 13.5 15.49
-34.5 13.5 15.22
-35.5 13.5 15.03
-36.5 13.5 14.9
-37.5 13.5 14.56
-38.5 13.5 13.98
-39.5 13.5 13.22
-40.5 13.5 12.38
-41.5 13.5 11.38
-42.5 13.5 10.26
-43.5 13.5 8.97
-44.5 13.5 7.41
-45.5 13.5 6
-46.5 13.5 4.81
-47.5 13.5 3.8
-48.5 13.5 2.82
-49.5 13.5 2
-50.5 13.5 1.24
-51.5 13.5 0.36
-24.5 14.5 12.99
-25.5 14.5 13.38
-26.5 14.5 13.89
-27.5 14.5 14.38
-28.5 14.5 15.18
-29.5 14.5 15.55
-30.5 14.5 15.78
-31.5 14.5 15.94
-32.5 14.5 15.97
-33.5 14.5 15.8
-34.5 14.5 15.57
-35.5 14.5 15.41
-36.5 14.5 15.32
-37.5 14.5 15.01
-38.5 14.5 14.44
-39.5 14.5 13.69
-40.5 14.5 12.89
-41.5 14.5 11.88
-42.5 14.5 10.71
-43.5 14.5 9.34
-44.5 14.5 7.63
-45.5 14.5 6.11
-46.5 14.5 4.89
-47.5 14.5 3.85
-48.5 14.5 2.91
-49.5 14.5 2.12
-50.5 14.5 1.35
-51.5 14.5 0.46
-24.5 15.5 13.21
-25.5 15.5 13.55
-26.5 15.5 13.9
-27.5 15.5 13.89
-28.5 15.5 14.53
-29.5 15.5 14.93
-30.5 15.5 15.28
-31.5 15.5 15.66
-32.5 15.5 16.05
-33.5 15.5 16.05
-34.5 15.5 15.91
-35.5 15.5 15.83
-36.5 15.5 15.82
-37.5 15.5 15.56
-38.5 15.5 14.97
-39.5 15.5 14.16
-40.5 15.5 13.31
-41.5 15.5 12.22
-42.5 15.5 10.97
-43.5 15.5 9.56
-44.5 15.5 7.8
-45.5 15.5 6.25
-46.5 15.5 4.98
-47.5 15.5 3.93
-48.5 15.5 2.99
-49.5 15.5 2.24
-50.5 15.5 1.49
-51.5 15.5 0.58
-28.5 16.5 13.89
-29.5 16.5 14.15
-30.5 16.5 14.42
-31.5 16.5 14.96
-32.5 16.5 15.64
-33.5 16.5 15.86
-34.5 16.5 15.93
-35.5 16.5 16.1
-36.5 16.5 16.44
-37.5 16.5 16.3
-38.5 16.5 15.69
-39.5 16.5 14.72
-40.5 16.5 13.64
-41.5 16.5 12.34
-42.5 16.5 11
-43.5 16.5 9.64
-44.5 16.5 7.92
-45.5 16.5 6.37
-46.5 16.5 5.03
-47.5 16.5 3.89
-48.5 16.5 2.85
-49.5 16.5 2.22
-50.5 16.5 1.53
-51.5 16.5 0.63
-29.5 17.5 14.13
-30.5 17.5 13.9
-31.5 17.5 14.38
-32.5 17.5 15.09
-33.5 17.5 15.39
-34.5 17.5 15.59
-35.5 17.5 15.99
-36.5 17.5 16.56
-37.5 17.5 16.56
-38.5 17.5 15.93
-39.5 17.5 14.86
-40.5 17.5 13.71
-41.5 17.5 12.26
-42.5 17.5 10.83
-43.5 17.5 9.52
-44.5 17.5 7.97
-45.5 17.5 6.44
-46.5 17.5 5.07
-47.5 17.5 3.89
-48.5 17.5 2.83
-49.5 17.5 2.22
-50.5 17.5 1.54
-51.5 17.5 0.67
-31.5 18.5 14.66
-32.5 18.5 14.89
-33.5 18.5 15.02
-34.5 18.5 15.28
-35.5 18.5 15.88
-36.5 18.5 16.64
-37.5 18.5 16.77
-38.5 18.5 16.14
-39.5 18.5 15.01
-40.5 18.5 13.81
-41.5 18.5 12.27
-42.5 18.5 10.75
-43.5 18.5 9.44
-44.5 18.5 8.06
-45.5 18.5 6.54
-46.5 18.5 5.14
-47.5 18.5 3.93
-48.5 18.5 2.8
-49.5 18.5 2.16
-50.5 18.5 1.47
-51.5 18.5 0.61
-33.5 19.5 15.26
-34.5 19.5 15.28
-35.5 19.5 15.92
-36.5 19.5 16.78
-37.5 19.5 16.96
-38.5 19.5 16.32
-39.5 19.5 15.14
-40.5 19.5 13.89
-41.5 19.5 12.28
-42.5 19.5 10.72
-43.5 19.5 9.42
-44.5 19.5 8.17
-45.5 19.5 6.68
-46.5 19.5 5.25
-47.5 19.5 3.97
-48.5 19.5 2.72
-49.5 19.5 1.99
-50.5 19.5 1.27
-51.5 19.5 0.48
-35.5 20.5 16.59
-36.5 20.5 17.56
-37.5 20.5 17.75
-38.5 20.5 17.1
-39.5 20.5 15.82
-40.5 20.5 14.38
-41.5 20.5 12.54
-42.5 20.5 10.85
-43.5 20.5 9.54
-44.5 20.5 8.31
-45.5 20.5 6.97
-46.5 20.5 5.57
-47.5 20.5 4.13
-48.5 20.5 2.58
-49.5 20.5 1.7
-50.5 20.5 0.95
-51.5 20.5 0.23
-35.5 21.5 17.55
-36.5 21.5 18.31
-37.5 21.5 18.27
-38.5 21.5 17.43
-39.5 21.5 15.97
-40.5 21.5 14.28
-41.5 21.5 12.41
-42.5 21.5 10.75
-43.5 21.5 9.44
-44.5 21.5 8.16
-45.5 21.5 6.91
-46.5 21.5 5.61
-47.5 21.5 4.18
-48.5 21.5 2.58
-49.5 21.5 1.62
-50.5 21.5 0.83
-51.5 21.5 0.16
