-24.5 12.5 16.32
-25.5 12.5 16.56
-26.5 12.5 16.94
-27.5 12.5 17.38
-28.5 12.5 17.77
-29.5 12.5 17.77
-30.5 12.5 17.56
-31.5 12.5 17.45
-32.5 12.5 17.57
-33.5 12.5 17.51
-34.5 12.5 17.13
-35.5 12.5 16.64
-36.5 12.5 16.47
-37.5 12.5 15.99
-38.5 12.5 15.34
-39.5 12.5 14.48
-40.5 12.5 13.46
-41.5 12.5 11.77
-42.5 12.5 10.14
-43.5 12.5 8.88
-44.5 12.5 7.8
-45.5 12.5 7.06
-46.5 12.5 6.34
-47.5 12.5 5.38
-48.5 12.5 4.05
-49.5 12.5 2.99
-50.5 12.5 2.04
-51.5 12.5 1.15
-24.5 13.5 15.3
-25.5 13.5 15.57
-26.5 13.5 15.99
-27.5 13.5 16.53
-28.5 13.5 17.17
-29.5 13.5 17.42
-30.5 13.5 17.45
-31.5 13.5 17.47
-32.5 13.5 17.6
-33.5 13.5 17.48
-34.5 13.5 17.05
-35.5 13.5 16.53
-36.5 13.5 16.45
-37.5 13.5 16.07
-38.5 13.5 15.48
-39.5 13.5 14.71
-40.5 13.5 13.88
-41.5 13.5 12.16
-42.5 13.5 10.45
-43.5 13.5 9.1
-44.5 13.5 7.92
-45.5 13.5 7.11
-46.5 13.5 6.35
-47.5 13.5 5.38
-48.5 13.5 4.07
-49.5 13.5 3.04
-50.5 13.5 2.1
-51.5 13.5 1.19
-24.5 14.5 14.57
-25.5 14.5 14.85
-26.5 14.5 15.24
-27.5 14.5 15.61
-28.5 14.5 16.32
-29.5 14.5 16.73
-30.5 14.5 16.98
-31.5 14.5 17.26
-32.5 14.5 17.54
-33.5 14.5 17.5
-34.5 14.5 17.07
-35.5 14.5 16.59
-36.5 14.5 16.64
-37.5 14.5 16.39
-38.5 14.5 15.9
-39.5 14.5 15.21
-40.5 14.5 14.5
-41.5 14.5 12.73
-42.5 14.5 10.93
-43.5 14.5 9.48
-44.5 14.5 8.21
-45.5 14.5 7.31
-46.5 14.5 6.46
-47.5 14.5 5.46
-48.5 14.5 4.18
-49.5 14.5 3.16
-50.5 14.5 2.22
-51.5 14.5 1.27
-24.5 15.5 14.75
-25.5 15.5 14.99
-26.5 15.5 15.16
-27.5 15.5 15.02
-28.5 15.5 15.39
-29.5 15.5 15.76
-30.5 15.5 16.12
-31.5 15.5 16.61
-32.5 15.5 17.19
-33.5 15.5 17.3
-34.5 15.5 17.01
-35.5 15.5 16.67
-36.5 15.5 16.97
-37.5 15.5 16.94
-38.5 15.5 16.54
-39.5 15.5 15.85
-40.5 15.5 15.11
-41.5 15.5 13.26
-42.5 15.5 11.35
-43.5 15.5 9.81
-44.5 15.5 8.51
-45.5 15.5 7.5
-46.5 15.5 6.54
-47.5 15.5 5.48
-48.5 15.5 4.27
-49.5 15.5 3.29
-50.5 15.5 2.37
-51.5 15.5 1.43
-28.5 16.5 14.33
-29.5 16.5 14.53
-30.5 16.5 14.72
-31.5 16.5 15.36
-32.5 16.5 16.34
-33.5 16.5 16.7
-34.5 16.5 16.68
-35.5 16.5 16.68
-36.5 16.5 17.38
-37.5 16.5 17.59
-38.5 16.5 17.2
-39.5 16.5 16.3
-40.5 16.5 15.14
-41.5 16.5 13.18
-42.5 16.5 11.31
-43.5 16.5 9.93
-44.5 16.5 8.83
-45.5 16.5 7.57
-46.5 16.5 6.35
-47.5 16.5 5.21
-48.5 16.5 4.07
-49.5 16.5 3.26
-50.5 16.5 2.49
-51.5 16.5 1.64
-29.5 17.5 14.31
-30.5 17.5 13.8
-31.5 17.5 14.35
-32.5 17.5 15.38
-33.5 17.5 15.88
-34.5 17.5 16.17
-35.5 17.5 16.6
-36.5 17.5 17.77
-37.5 17.5 18.23
-38.5 17.5 17.92
-39.5 17.5 16.92
-40.5 17.5 15.55
-41.5 17.5 13.51
-42.5 17.5 11.63
-43.5 17.5 10.28
-44.5 17.5 9.23
-45.5 17.5 7.83
-46.5 17.5 6.46
-47.5 17.5 5.18
-48.5 17.5 4.02
-49.5 17.5 3.24
-50.5 17.5 2.49
-51.5 17.5 1.68
-31.5 18.5 14.71
-32.5 18.5 14.97
-33.5 18.5 15.25
-34.5 18.5 15.66
-35.5 18.5 16.45
-36.5 18.5 17.98
-37.5 18.5 18.7
-38.5 18.5 18.45
-39.5 18.5 17.38
-40.5 18.5 15.96
-41.5 18.5 13.89
-42.5 18.5 12
-43.5 18.5 10.69
-44.5 18.5 9.63
-45.5 18.5 8.14
-46.5 18.5 6.6
-47.5 18.5 5.21
-48.5 18.5 3.97
-49.5 18.5 3.2
-50.5 18.5 2.45
-51.5 18.5 1.64
-33.5 19.5 15.41
-34.5 19.5 15.48
-35.5 19.5 16.4
-36.5 19.5 18.2
-37.5 19.5 19.07
-38.5 19.5 18.88
-39.5 19.5 17.8
-40.5 19.5 16.43
-41.5 19.5 14.39
-42.5 19.5 12.51
-43.5 19.5 11.15
-44.5 19.5 9.97
-45.5 19.5 8.37
-46.5 19.5 6.75
-47.5 19.5 5.25
-48.5 19.5 3.89
-49.5 19.5 3.07
-50.5 19.5 2.31
-51.5 19.5 1.53
-35.5 20.5 16.8
-36.5 20.5 18.73
-37.5 20.5 19.63
-38.5 20.5 19.38
-39.5 20.5 18.25
-40.5 20.5 16.97
-41.5 20.5 14.97
-42.5 20.5 13.06
-43.5 20.5 11.46
-44.5 20.5 10.15
-45.5 20.5 8.46
-46.5 20.5 6.8
-47.5 20.5 5.23
-48.5 20.5 3.66
-49.5 20.5 2.72
-50.5 20.5 1.95
-51.5 20.5 1.27
-35.5 21.5 17.52
-36.5 21.5 19.25
-37.5 21.5 20.01
-38.5 21.5 19.7
-39.5 21.5 18.48
-40.5 21.5 17
-41.5 21.5 15.05
-42.5 21.5 13.15
-43.5 21.5 11.42
-44.5 21.5 9.72
-45.5 21.5 8.05
-46.5 21.5 6.5
-47.5 21.5 5.05
-48.5 21.5 3.62
-49.5 21.5 2.64
-50.5 21.5 1.81
-51.5 21.5 1.13
