39.5 180.5 20.44
39.5 181.5 20.52
39.5 182.5 20.79
39.5 183.5 21.08
39.5 184.5 21.11
39.5 185.5 21.26
39.5 186.5 21.4
39.5 187.5 21.57
39.5 188.5 21.52
39.5 189.5 21.67
39.5 190.5 21.77
39.5 191.5 21.93
39.5 192.5 22.05
39.5 193.5 22.27
39.5 194.5 22.39
39.5 195.5 22.53
39.5 196.5 22.59
39.5 197.5 22.75
39.5 198.5 22.86
39.5 199.5 22.87
39.5 200.5 22.72
39.5 201.5 22.69
39.5 202.5 22.67
39.5 203.5 22.63
39.5 204.5 22.49
39.5 205.5 22.4
39.5 206.5 22.32
39.5 207.5 22.2
39.5 208.5 21.9
39.5 209.5 21.63
38.5 180.5 21.55
38.5 181.5 21.67
38.5 182.5 21.97
38.5 183.5 22.25
38.5 184.5 22.19
38.5 185.5 22.3
38.5 186.5 22.44
38.5 187.5 22.64
38.5 188.5 22.59
38.5 189.5 22.72
38.5 190.5 22.8
38.5 191.5 22.94
38.5 192.5 23.14
38.5 193.5 23.33
38.5 194.5 23.39
38.5 195.5 23.47
38.5 196.5 23.61
38.5 197.5 23.73
38.5 198.5 23.78
38.5 199.5 23.73
38.5 200.5 23.47
38.5 201.5 23.39
38.5 202.5 23.35
38.5 203.5 23.29
38.5 204.5 23.09
38.5 205.5 22.99
38.5 206.5 22.89
38.5 207.5 22.76
38.5 208.5 22.41
38.5 209.5 22.1
37.5 180.5 22.49
37.5 181.5 22.65
37.5 182.5 22.98
37.5 183.5 23.26
37.5 184.5 23.14
37.5 185.5 23.23
37.5 186.5 23.37
37.5 187.5 23.58
37.5 188.5 23.51
37.5 189.5 23.58
37.5 190.5 23.6
37.5 191.5 23.69
37.5 192.5 23.94
37.5 193.5 24.11
37.5 194.5 24.11
37.5 195.5 24.13
37.5 196.5 24.35
37.5 197.5 24.43
37.5 198.5 24.42
37.5 199.5 24.32
37.5 200.5 24.05
37.5 201.5 23.94
37.5 202.5 23.88
37.5 203.5 23.82
37.5 204.5 23.61
37.5 205.5 23.49
37.5 206.5 23.37
37.5 207.5 23.21
37.5 208.5 22.86
37.5 209.5 22.53
36.5 180.5 23.23
36.5 181.5 23.43
36.5 182.5 23.78
36.5 183.5 24.06
36.5 184.5 23.96
36.5 185.5 24.05
36.5 186.5 24.21
36.5 187.5 24.42
36.5 188.5 24.37
36.5 189.5 24.37
36.5 190.5 24.31
36.5 191.5 24.34
36.5 192.5 24.58
36.5 193.5 24.69
36.5 194.5 24.63
36.5 195.5 24.6
36.5 196.5 24.88
36.5 197.5 24.92
36.5 198.5 24.86
36.5 199.5 24.73
36.5 200.5 24.51
36.5 201.5 24.39
36.5 202.5 24.33
36.5 203.5 24.29
36.5 204.5 24.1
36.5 205.5 23.98
36.5 206.5 23.82
36.5 207.5 23.63
36.5 208.5 23.3
36.5 209.5 22.96
35.5 180.5 23.88
35.5 181.5 24.07
35.5 182.5 24.38
35.5 183.5 24.64
35.5 184.5 24.6
35.5 185.5 24.7
35.5 186.5 24.85
35.5 187.5 25.06
35.5 188.5 25.05
35.5 189.5 25.04
35.5 190.5 24.94
35.5 191.5 24.94
35.5 192.5 25.11
35.5 193.5 25.16
35.5 194.5 25.06
35.5 195.5 25
35.5 196.5 25.23
35.5 197.5 25.23
35.5 198.5 25.14
35.5 199.5 24.99
35.5 200.5 24.88
35.5 201.5 24.79
35.5 202.5 24.76
35.5 203.5 24.73
35.5 204.5 24.55
35.5 205.5 24.42
35.5 206.5 24.26
35.5 207.5 24.04
35.5 208.5 23.78
35.5 209.5 23.46
34.5 180.5 24.46
34.5 181.5 24.64
34.5 182.5 24.93
34.5 183.5 25.19
34.5 184.5 25.24
34.5 185.5 25.35
34.5 186.5 25.49
34.5 187.5 25.66
34.5 188.5 25.72
34.5 189.5 25.7
34.5 190.5 25.58
34.5 191.5 25.52
34.5 192.5 25.63
34.5 193.5 25.61
34.5 194.5 25.48
34.5 195.5 25.39
34.5 196.5 25.53
34.5 197.5 25.48
34.5 198.5 25.37
34.5 199.5 25.21
34.5 200.5 25.1
34.5 201.5 25
34.5 202.5 24.96
34.5 203.5 24.93
34.5 204.5 24.78
34.5 205.5 24.65
34.5 206.5 24.47
34.5 207.5 24.24
34.5 208.5 24
34.5 209.5 23.69
33.5 180.5 25.16
33.5 181.5 25.31
33.5 182.5 25.55
33.5 183.5 25.76
33.5 184.5 25.84
33.5 185.5 25.93
33.5 186.5 26.03
33.5 187.5 26.16
33.5 188.5 26.26
33.5 189.5 26.23
33.5 190.5 26.11
33.5 191.5 26.02
33.5 192.5 26.06
33.5 193.5 25.98
33.5 194.5 25.85
33.5 195.5 25.74
33.5 196.5 25.74
33.5 197.5 25.66
33.5 198.5 25.53
33.5 199.5 25.36
33.5 200.5 25.2
33.5 201.5 25.07
33.5 202.5 25.01
33.5 203.5 24.97
33.5 204.5 24.85
33.5 205.5 24.73
33.5 206.5 24.57
33.5 207.5 24.37
33.5 208.5 24.18
33.5 209.5 23.9
32.5 180.5 25.98
32.5 181.5 26.07
32.5 182.5 26.23
32.5 183.5 26.37
32.5 184.5 26.41
32.5 185.5 26.46
32.5 186.5 26.52
32.5 187.5 26.6
32.5 188.5 26.68
32.5 189.5 26.64
32.5 190.5 26.54
32.5 191.5 26.45
32.5 192.5 26.43
32.5 193.5 26.32
32.5 194.5 26.19
32.5 195.5 26.06
32.5 196.5 25.92
32.5 197.5 25.81
32.5 198.5 25.67
32.5 199.5 25.5
32.5 200.5 25.28
32.5 201.5 25.11
32.5 202.5 25.02
32.5 203.5 24.96
32.5 204.5 24.85
32.5 205.5 24.75
32.5 206.5 24.62
32.5 207.5 24.46
32.5 208.5 24.32
32.5 209.5 24.1
31.5 180.5 26.78
31.5 181.5 26.86
31.5 182.5 26.93
31.5 183.5 26.99
31.5 184.5 26.95
31.5 185.5 26.97
31.5 186.5 27
31.5 187.5 27.02
31.5 188.5 27
31.5 189.5 26.94
31.5 190.5 26.87
31.5 191.5 26.81
31.5 192.5 26.71
31.5 193.5 26.62
31.5 194.5 26.5
31.5 195.5 26.36
31.5 196.5 26.13
31.5 197.5 25.99
31.5 198.5 25.85
31.5 199.5 25.7
31.5 200.5 25.45
31.5 201.5 25.29
31.5 202.5 25.18
31.5 203.5 25.09
31.5 204.5 24.92
31.5 205.5 24.79
31.5 206.5 24.66
31.5 207.5 24.52
31.5 208.5 24.39
31.5 209.5 24.21
30.5 180.5 27.06
30.5 181.5 27.14
30.5 182.5 27.21
30.5 183.5 27.28
30.5 184.5 27.36
30.5 185.5 27.38
30.5 186.5 27.39
30.5 187.5 27.36
30.5 188.5 27.3
30.5 189.5 27.19
30.5 190.5 27.09
30.5 191.5 26.99
30.5 192.5 26.85
30.5 193.5 26.75
30.5 194.5 26.64
30.5 195.5 26.5
30.5 196.5 26.29
30.5 197.5 26.16
30.5 198.5 26.04
30.5 199.5 25.92
30.5 200.5 25.7
30.5 201.5 25.51
30.5 202.5 25.38
30.5 203.5 25.23
30.5 204.5 24.97
30.5 205.5 24.81
30.5 206.5 24.67
30.5 207.5 24.54
30.5 208.5 24.37
30.5 209.5 24.21
29.5 180.5 27.13
29.5 181.5 27.22
29.5 182.5 27.31
29.5 183.5 27.43
29.5 184.5 27.62
29.5 185.5 27.63
29.5 186.5 27.61
29.5 187.5 27.55
29.5 188.5 27.46
29.5 189.5 27.3
29.5 190.5 27.17
29.5 191.5 27.04
29.5 192.5 26.9
29.5 193.5 26.8
29.5 194.5 26.69
29.5 195.5 26.57
29.5 196.5 26.41
29.5 197.5 26.29
29.5 198.5 26.2
29.5 199.5 26.1
29.5 200.5 25.89
29.5 201.5 25.7
29.5 202.5 25.53
29.5 203.5 25.34
29.5 204.5 25.02
29.5 205.5 24.84
29.5 206.5 24.69
29.5 207.5 24.55
29.5 208.5 24.35
29.5 209.5 24.19
28.5 180.5 27.18
28.5 181.5 27.29
28.5 182.5 27.4
28.5 183.5 27.54
28.5 184.5 27.74
28.5 185.5 27.74
28.5 186.5 27.69
28.5 187.5 27.61
28.5 188.5 27.5
28.5 189.5 27.32
28.5 190.5 27.17
28.5 191.5 27.03
28.5 192.5 26.94
28.5 193.5 26.84
28.5 194.5 26.73
28.5 195.5 26.62
28.5 196.5 26.5
28.5 197.5 26.4
28.5 198.5 26.32
28.5 199.5 26.24
28.5 200.5 26
28.5 201.5 25.81
28.5 202.5 25.62
28.5 203.5 25.4
28.5 204.5 25.06
28.5 205.5 24.87
28.5 206.5 24.73
28.5 207.5 24.58
28.5 208.5 24.38
28.5 209.5 24.22
27.5 180.5 27.37
27.5 181.5 27.5
27.5 182.5 27.62
27.5 183.5 27.74
27.5 184.5 27.87
27.5 185.5 27.82
27.5 186.5 27.74
27.5 187.5 27.64
27.5 188.5 27.53
27.5 189.5 27.37
27.5 190.5 27.22
27.5 191.5 27.09
27.5 192.5 27.06
27.5 193.5 26.94
27.5 194.5 26.82
27.5 195.5 26.71
27.5 196.5 26.61
27.5 197.5 26.51
27.5 198.5 26.43
27.5 199.5 26.34
27.5 200.5 26.06
27.5 201.5 25.86
27.5 202.5 25.67
27.5 203.5 25.46
27.5 204.5 25.16
27.5 205.5 24.96
27.5 206.5 24.8
27.5 207.5 24.63
27.5 208.5 24.48
27.5 209.5 24.32
26.5 180.5 27.63
26.5 181.5 27.74
26.5 182.5 27.85
26.5 183.5 27.94
26.5 184.5 27.98
26.5 185.5 27.9
26.5 186.5 27.8
26.5 187.5 27.69
26.5 188.5 27.57
26.5 189.5 27.43
26.5 190.5 27.3
26.5 191.5 27.18
26.5 192.5 27.16
26.5 193.5 27.04
26.5 194.5 26.91
26.5 195.5 26.79
26.5 196.5 26.67
26.5 197.5 26.55
26.5 198.5 26.46
26.5 199.5 26.36
26.5 200.5 26.1
26.5 201.5 25.9
26.5 202.5 25.71
26.5 203.5 25.51
26.5 204.5 25.26
26.5 205.5 25.08
26.5 206.5 24.92
26.5 207.5 24.76
26.5 208.5 24.63
26.5 209.5 24.47
25.5 180.5 27.91
25.5 181.5 28
25.5 182.5 28.08
25.5 183.5 28.12
25.5 184.5 28.08
25.5 185.5 27.97
25.5 186.5 27.88
25.5 187.5 27.77
25.5 188.5 27.64
25.5 189.5 27.52
25.5 190.5 27.41
25.5 191.5 27.3
25.5 192.5 27.26
25.5 193.5 27.13
25.5 194.5 27
25.5 195.5 26.86
25.5 196.5 26.73
25.5 197.5 26.59
25.5 198.5 26.46
25.5 199.5 26.36
25.5 200.5 26.17
25.5 201.5 25.98
25.5 202.5 25.79
25.5 203.5 25.6
25.5 204.5 25.41
25.5 205.5 25.26
25.5 206.5 25.09
25.5 207.5 24.93
25.5 208.5 24.77
25.5 209.5 24.58
24.5 180.5 28.14
24.5 181.5 28.2
24.5 182.5 28.24
24.5 183.5 28.25
24.5 184.5 28.14
24.5 185.5 28.03
24.5 186.5 27.94
24.5 187.5 27.84
24.5 188.5 27.69
24.5 189.5 27.59
24.5 190.5 27.49
24.5 191.5 27.4
24.5 192.5 27.32
24.5 193.5 27.19
24.5 194.5 27.06
24.5 195.5 26.93
24.5 196.5 26.81
24.5 197.5 26.64
24.5 198.5 26.49
24.5 199.5 26.36
24.5 200.5 26.25
24.5 201.5 26.08
24.5 202.5 25.9
24.5 203.5 25.73
24.5 204.5 25.58
24.5 205.5 25.42
24.5 206.5 25.24
24.5 207.5 25.06
24.5 208.5 24.84
24.5 209.5 24.62
23.5 180.5 28.23
23.5 181.5 28.23
23.5 182.5 28.21
23.5 183.5 28.17
23.5 184.5 28.1
23.5 185.5 28
23.5 186.5 27.92
23.5 187.5 27.81
23.5 188.5 27.65
23.5 189.5 27.56
23.5 190.5 27.49
23.5 191.5 27.4
23.5 192.5 27.33
23.5 193.5 27.22
23.5 194.5 27.13
23.5 195.5 27.05
23.5 196.5 26.95
23.5 197.5 26.78
23.5 198.5 26.6
23.5 199.5 26.45
23.5 200.5 26.36
23.5 201.5 26.22
23.5 202.5 26.05
23.5 203.5 25.88
23.5 204.5 25.7
23.5 205.5 25.49
23.5 206.5 25.27
23.5 207.5 25.07
23.5 208.5 24.86
23.5 209.5 24.62
22.5 180.5 28.22
22.5 181.5 28.21
22.5 182.5 28.17
22.5 183.5 28.12
22.5 184.5 28.04
22.5 185.5 27.97
22.5 186.5 27.9
22.5 187.5 27.8
22.5 188.5 27.66
22.5 189.5 27.58
22.5 190.5 27.51
22.5 191.5 27.44
22.5 192.5 27.43
22.5 193.5 27.37
22.5 194.5 27.32
22.5 195.5 27.27
22.5 196.5 27.19
22.5 197.5 27.02
22.5 198.5 26.83
22.5 199.5 26.67
22.5 200.5 26.57
22.5 201.5 26.41
22.5 202.5 26.23
22.5 203.5 26.04
22.5 204.5 25.86
22.5 205.5 25.62
22.5 206.5 25.38
22.5 207.5 25.17
22.5 208.5 24.98
22.5 209.5 24.78
21.5 180.5 28.22
21.5 181.5 28.21
21.5 182.5 28.15
21.5 183.5 28.09
21.5 184.5 28.02
21.5 185.5 27.96
21.5 186.5 27.9
21.5 187.5 27.83
21.5 188.5 27.73
21.5 189.5 27.66
21.5 190.5 27.6
21.5 191.5 27.56
21.5 192.5 27.61
21.5 193.5 27.59
21.5 194.5 27.57
21.5 195.5 27.53
21.5 196.5 27.46
21.5 197.5 27.32
21.5 198.5 27.15
21.5 199.5 26.99
21.5 200.5 26.86
21.5 201.5 26.68
21.5 202.5 26.48
21.5 203.5 26.26
21.5 204.5 26.06
21.5 205.5 25.8
21.5 206.5 25.55
21.5 207.5 25.34
21.5 208.5 25.19
21.5 209.5 25.02
20.5 180.5 28.25
20.5 181.5 28.23
20.5 182.5 28.17
20.5 183.5 28.1
20.5 184.5 28.04
20.5 185.5 28
20.5 186.5 27.96
20.5 187.5 27.9
20.5 188.5 27.85
20.5 189.5 27.8
20.5 190.5 27.76
20.5 191.5 27.74
20.5 192.5 27.81
20.5 193.5 27.81
20.5 194.5 27.8
20.5 195.5 27.77
20.5 196.5 27.69
20.5 197.5 27.57
20.5 198.5 27.41
20.5 199.5 27.26
20.5 200.5 27.13
20.5 201.5 26.94
20.5 202.5 26.73
20.5 203.5 26.48
20.5 204.5 26.25
20.5 205.5 25.98
20.5 206.5 25.73
20.5 207.5 25.54
20.5 208.5 25.42
20.5 209.5 25.28
19.5 180.5 28.28
19.5 181.5 28.27
19.5 182.5 28.22
19.5 183.5 28.15
19.5 184.5 28.13
19.5 185.5 28.1
19.5 186.5 28.08
19.5 187.5 28.04
19.5 188.5 28.02
19.5 189.5 28
19.5 190.5 27.97
19.5 191.5 27.95
19.5 192.5 27.97
19.5 193.5 27.95
19.5 194.5 27.93
19.5 195.5 27.87
19.5 196.5 27.75
19.5 197.5 27.61
19.5 198.5 27.44
19.5 199.5 27.3
19.5 200.5 27.2
19.5 201.5 27.04
19.5 202.5 26.83
19.5 203.5 26.59
19.5 204.5 26.34
19.5 205.5 26.09
19.5 206.5 25.88
19.5 207.5 25.72
19.5 208.5 25.66
19.5 209.5 25.54
18.5 180.5 28.34
18.5 181.5 28.34
18.5 182.5 28.29
18.5 183.5 28.23
18.5 184.5 28.23
18.5 185.5 28.19
18.5 186.5 28.17
18.5 187.5 28.14
18.5 188.5 28.14
18.5 189.5 28.12
18.5 190.5 28.11
18.5 191.5 28.08
18.5 192.5 28.04
18.5 193.5 28
18.5 194.5 27.94
18.5 195.5 27.85
18.5 196.5 27.7
18.5 197.5 27.53
18.5 198.5 27.35
18.5 199.5 27.19
18.5 200.5 27.11
18.5 201.5 26.96
18.5 202.5 26.78
18.5 203.5 26.59
18.5 204.5 26.4
18.5 205.5 26.2
18.5 206.5 26.03
18.5 207.5 25.93
18.5 208.5 25.86
18.5 209.5 25.73
17.5 180.5 28.36
17.5 181.5 28.37
17.5 182.5 28.33
17.5 183.5 28.28
17.5 184.5 28.29
17.5 185.5 28.26
17.5 186.5 28.22
17.5 187.5 28.19
17.5 188.5 28.18
17.5 189.5 28.16
17.5 190.5 28.14
17.5 191.5 28.11
17.5 192.5 28.05
17.5 193.5 27.98
17.5 194.5 27.9
17.5 195.5 27.78
17.5 196.5 27.62
17.5 197.5 27.43
17.5 198.5 27.23
17.5 199.5 27.06
17.5 200.5 26.98
17.5 201.5 26.84
17.5 202.5 26.7
17.5 203.5 26.57
17.5 204.5 26.45
17.5 205.5 26.32
17.5 206.5 26.21
17.5 207.5 26.16
17.5 208.5 26.07
17.5 209.5 25.95
16.5 180.5 28.37
16.5 181.5 28.38
16.5 182.5 28.36
16.5 183.5 28.33
16.5 184.5 28.34
16.5 185.5 28.29
16.5 186.5 28.25
16.5 187.5 28.21
16.5 188.5 28.15
16.5 189.5 28.12
16.5 190.5 28.08
16.5 191.5 28.05
16.5 192.5 28.01
16.5 193.5 27.94
16.5 194.5 27.85
16.5 195.5 27.74
16.5 196.5 27.6
16.5 197.5 27.4
16.5 198.5 27.2
16.5 199.5 27.03
16.5 200.5 26.92
16.5 201.5 26.8
16.5 202.5 26.68
16.5 203.5 26.6
16.5 204.5 26.53
16.5 205.5 26.47
16.5 206.5 26.42
16.5 207.5 26.42
16.5 208.5 26.35
16.5 209.5 26.24
15.5 180.5 28.45
15.5 181.5 28.46
15.5 182.5 28.44
15.5 183.5 28.41
15.5 184.5 28.37
15.5 185.5 28.31
15.5 186.5 28.23
15.5 187.5 28.16
15.5 188.5 28.09
15.5 189.5 28.04
15.5 190.5 27.99
15.5 191.5 27.95
15.5 192.5 27.97
15.5 193.5 27.94
15.5 194.5 27.89
15.5 195.5 27.82
15.5 196.5 27.7
15.5 197.5 27.51
15.5 198.5 27.3
15.5 199.5 27.1
15.5 200.5 26.98
15.5 201.5 26.86
15.5 202.5 26.76
15.5 203.5 26.71
15.5 204.5 26.73
15.5 205.5 26.69
15.5 206.5 26.68
15.5 207.5 26.71
15.5 208.5 26.72
15.5 209.5 26.63
14.5 180.5 28.54
14.5 181.5 28.54
14.5 182.5 28.53
14.5 183.5 28.51
14.5 184.5 28.45
14.5 185.5 28.38
14.5 186.5 28.29
14.5 187.5 28.2
14.5 188.5 28.1
14.5 189.5 28.03
14.5 190.5 27.97
14.5 191.5 27.92
14.5 192.5 27.98
14.5 193.5 27.96
14.5 194.5 27.92
14.5 195.5 27.88
14.5 196.5 27.81
14.5 197.5 27.65
14.5 198.5 27.47
14.5 199.5 27.28
14.5 200.5 27.17
14.5 201.5 27.07
14.5 202.5 26.98
14.5 203.5 26.92
14.5 204.5 26.94
14.5 205.5 26.89
14.5 206.5 26.87
14.5 207.5 26.91
14.5 208.5 26.97
14.5 209.5 26.96
13.5 180.5 28.63
13.5 181.5 28.64
13.5 182.5 28.63
13.5 183.5 28.62
13.5 184.5 28.55
13.5 185.5 28.47
13.5 186.5 28.38
13.5 187.5 28.28
13.5 188.5 28.17
13.5 189.5 28.1
13.5 190.5 28.04
13.5 191.5 27.98
13.5 192.5 28.05
13.5 193.5 28.03
13.5 194.5 28
13.5 195.5 27.97
13.5 196.5 27.95
13.5 197.5 27.81
13.5 198.5 27.64
13.5 199.5 27.48
13.5 200.5 27.4
13.5 201.5 27.31
13.5 202.5 27.24
13.5 203.5 27.17
13.5 204.5 27.18
13.5 205.5 27.11
13.5 206.5 27.08
13.5 207.5 27.12
13.5 208.5 27.19
13.5 209.5 27.24
12.5 180.5 28.73
12.5 181.5 28.75
12.5 182.5 28.74
12.5 183.5 28.73
12.5 184.5 28.66
12.5 185.5 28.58
12.5 186.5 28.49
12.5 187.5 28.4
12.5 188.5 28.3
12.5 189.5 28.23
12.5 190.5 28.18
12.5 191.5 28.12
12.5 192.5 28.16
12.5 193.5 28.14
12.5 194.5 28.12
12.5 195.5 28.09
12.5 196.5 28.1
12.5 197.5 27.96
12.5 198.5 27.8
12.5 199.5 27.65
12.5 200.5 27.61
12.5 201.5 27.54
12.5 202.5 27.49
12.5 203.5 27.46
12.5 204.5 27.46
12.5 205.5 27.39
12.5 206.5 27.36
12.5 207.5 27.39
12.5 208.5 27.41
12.5 209.5 27.49
11.5 180.5 28.77
11.5 181.5 28.8
11.5 182.5 28.81
11.5 183.5 28.83
11.5 184.5 28.8
11.5 185.5 28.73
11.5 186.5 28.65
11.5 187.5 28.58
11.5 188.5 28.48
11.5 189.5 28.43
11.5 190.5 28.38
11.5 191.5 28.32
11.5 192.5 28.24
11.5 193.5 28.21
11.5 194.5 28.19
11.5 195.5 28.14
11.5 196.5 28.15
11.5 197.5 28.02
11.5 198.5 27.89
11.5 199.5 27.77
11.5 200.5 27.79
11.5 201.5 27.77
11.5 202.5 27.76
11.5 203.5 27.77
11.5 204.5 27.77
11.5 205.5 27.73
11.5 206.5 27.7
11.5 207.5 27.7
11.5 208.5 27.63
11.5 209.5 27.68
10.5 180.5 28.88
10.5 181.5 28.93
10.5 182.5 28.97
10.5 183.5 28.99
10.5 184.5 28.99
10.5 185.5 28.93
10.5 186.5 28.87
10.5 187.5 28.82
10.5 188.5 28.71
10.5 189.5 28.68
10.5 190.5 28.64
10.5 191.5 28.58
10.5 192.5 28.41
10.5 193.5 28.37
10.5 194.5 28.34
10.5 195.5 28.28
10.5 196.5 28.33
10.5 197.5 28.2
10.5 198.5 28.1
10.5 199.5 28.04
10.5 200.5 28.1
10.5 201.5 28.11
10.5 202.5 28.12
10.5 203.5 28.15
10.5 204.5 28.14
10.5 205.5 28.11
10.5 206.5 28.07
10.5 207.5 28.04
10.5 208.5 27.95
10.5 209.5 27.96
