39.5 180.5 14.53
39.5 181.5 14.53
39.5 182.5 14.58
39.5 183.5 14.59
39.5 184.5 14.69
39.5 185.5 14.51
39.5 186.5 14.34
39.5 187.5 14.13
39.5 188.5 14.01
39.5 189.5 13.95
39.5 190.5 14
39.5 191.5 13.99
39.5 192.5 13.7
39.5 193.5 13.77
39.5 194.5 13.93
39.5 195.5 14.01
39.5 196.5 13.78
39.5 197.5 13.76
39.5 198.5 13.84
39.5 199.5 13.93
39.5 200.5 14.03
39.5 201.5 14.14
39.5 202.5 14.29
39.5 203.5 14.49
39.5 204.5 14.69
39.5 205.5 14.87
39.5 206.5 15.09
39.5 207.5 15.39
39.5 208.5 15.82
39.5 209.5 16.01
38.5 180.5 15.67
38.5 181.5 15.74
38.5 182.5 15.8
38.5 183.5 15.8
38.5 184.5 15.93
38.5 185.5 15.75
38.5 186.5 15.6
38.5 187.5 15.38
38.5 188.5 15.21
38.5 189.5 15.14
38.5 190.5 15.19
38.5 191.5 15.15
38.5 192.5 14.67
38.5 193.5 14.67
38.5 194.5 14.8
38.5 195.5 14.86
38.5 196.5 14.57
38.5 197.5 14.54
38.5 198.5 14.62
38.5 199.5 14.73
38.5 200.5 14.95
38.5 201.5 15.09
38.5 202.5 15.26
38.5 203.5 15.46
38.5 204.5 15.72
38.5 205.5 15.92
38.5 206.5 16.14
38.5 207.5 16.42
38.5 208.5 16.79
38.5 209.5 16.93
37.5 180.5 16.76
37.5 181.5 16.87
37.5 182.5 16.93
37.5 183.5 16.9
37.5 184.5 16.98
37.5 185.5 16.8
37.5 186.5 16.66
37.5 187.5 16.44
37.5 188.5 16.2
37.5 189.5 16.09
37.5 190.5 16.13
37.5 191.5 16.07
37.5 192.5 15.51
37.5 193.5 15.47
37.5 194.5 15.57
37.5 195.5 15.65
37.5 196.5 15.45
37.5 197.5 15.45
37.5 198.5 15.52
37.5 199.5 15.64
37.5 200.5 15.93
37.5 201.5 16.09
37.5 202.5 16.26
37.5 203.5 16.47
37.5 204.5 16.78
37.5 205.5 17
37.5 206.5 17.22
37.5 207.5 17.45
37.5 208.5 17.73
37.5 209.5 17.81
36.5 180.5 17.84
36.5 181.5 17.91
36.5 182.5 17.92
36.5 183.5 17.83
36.5 184.5 17.8
36.5 185.5 17.62
36.5 186.5 17.51
36.5 187.5 17.31
36.5 188.5 17.02
36.5 189.5 16.86
36.5 190.5 16.86
36.5 191.5 16.78
36.5 192.5 16.27
36.5 193.5 16.22
36.5 194.5 16.34
36.5 195.5 16.48
36.5 196.5 16.43
36.5 197.5 16.47
36.5 198.5 16.53
36.5 199.5 16.63
36.5 200.5 16.93
36.5 201.5 17.11
36.5 202.5 17.29
36.5 203.5 17.52
36.5 204.5 17.87
36.5 205.5 18.09
36.5 206.5 18.27
36.5 207.5 18.45
36.5 208.5 18.58
36.5 209.5 18.63
35.5 180.5 19.02
35.5 181.5 18.99
35.5 182.5 18.9
35.5 183.5 18.67
35.5 184.5 18.39
35.5 185.5 18.19
35.5 186.5 18.12
35.5 187.5 17.98
35.5 188.5 17.64
35.5 189.5 17.41
35.5 190.5 17.32
35.5 191.5 17.18
35.5 192.5 16.86
35.5 193.5 16.88
35.5 194.5 17.07
35.5 195.5 17.31
35.5 196.5 17.42
35.5 197.5 17.51
35.5 198.5 17.59
35.5 199.5 17.7
35.5 200.5 17.98
35.5 201.5 18.17
35.5 202.5 18.37
35.5 203.5 18.61
35.5 204.5 18.9
35.5 205.5 19.08
35.5 206.5 19.2
35.5 207.5 19.29
35.5 208.5 19.25
35.5 209.5 19.28
34.5 180.5 19.92
34.5 181.5 19.84
34.5 182.5 19.72
34.5 183.5 19.46
34.5 184.5 19.06
34.5 185.5 18.82
34.5 186.5 18.72
34.5 187.5 18.6
34.5 188.5 18.33
34.5 189.5 18.12
34.5 190.5 18.01
34.5 191.5 17.89
34.5 192.5 17.82
34.5 193.5 17.88
34.5 194.5 18.06
34.5 195.5 18.3
34.5 196.5 18.44
34.5 197.5 18.53
34.5 198.5 18.61
34.5 199.5 18.71
34.5 200.5 18.93
34.5 201.5 19.1
34.5 202.5 19.27
34.5 203.5 19.49
34.5 204.5 19.78
34.5 205.5 19.94
34.5 206.5 20.03
34.5 207.5 20.09
34.5 208.5 19.99
34.5 209.5 20
33.5 180.5 20.76
33.5 181.5 20.69
33.5 182.5 20.57
33.5 183.5 20.31
33.5 184.5 19.91
33.5 185.5 19.64
33.5 186.5 19.5
33.5 187.5 19.39
33.5 188.5 19.22
33.5 189.5 19.07
33.5 190.5 18.97
33.5 191.5 18.88
33.5 192.5 18.99
33.5 193.5 19.05
33.5 194.5 19.17
33.5 195.5 19.34
33.5 196.5 19.47
33.5 197.5 19.55
33.5 198.5 19.63
33.5 199.5 19.72
33.5 200.5 19.85
33.5 201.5 19.98
33.5 202.5 20.11
33.5 203.5 20.28
33.5 204.5 20.5
33.5 205.5 20.64
33.5 206.5 20.74
33.5 207.5 20.81
33.5 208.5 20.72
33.5 209.5 20.72
32.5 180.5 21.53
32.5 181.5 21.49
32.5 182.5 21.41
32.5 183.5 21.23
32.5 184.5 20.91
32.5 185.5 20.64
32.5 186.5 20.46
32.5 187.5 20.34
32.5 188.5 20.31
32.5 189.5 20.2
32.5 190.5 20.11
32.5 191.5 20.03
32.5 192.5 20.22
32.5 193.5 20.24
32.5 194.5 20.28
32.5 195.5 20.37
32.5 196.5 20.48
32.5 197.5 20.55
32.5 198.5 20.64
32.5 199.5 20.71
32.5 200.5 20.76
32.5 201.5 20.83
32.5 202.5 20.91
32.5 203.5 21.02
32.5 204.5 21.14
32.5 205.5 21.26
32.5 206.5 21.36
32.5 207.5 21.45
32.5 208.5 21.43
32.5 209.5 21.44
31.5 180.5 22.04
31.5 181.5 22.08
31.5 182.5 22.11
31.5 183.5 22.09
31.5 184.5 21.98
31.5 185.5 21.77
31.5 186.5 21.57
31.5 187.5 21.42
31.5 188.5 21.39
31.5 189.5 21.31
31.5 190.5 21.22
31.5 191.5 21.16
31.5 192.5 21.35
31.5 193.5 21.35
31.5 194.5 21.34
31.5 195.5 21.35
31.5 196.5 21.45
31.5 197.5 21.45
31.5 198.5 21.49
31.5 199.5 21.52
31.5 200.5 21.48
31.5 201.5 21.56
31.5 202.5 21.65
31.5 203.5 21.75
31.5 204.5 21.79
31.5 205.5 21.87
31.5 206.5 21.95
31.5 207.5 22.04
31.5 208.5 22.08
31.5 209.5 22.1
30.5 180.5 22.6
30.5 181.5 22.69
30.5 182.5 22.79
30.5 183.5 22.9
30.5 184.5 23.01
30.5 185.5 22.89
30.5 186.5 22.68
30.5 187.5 22.49
30.5 188.5 22.41
30.5 189.5 22.31
30.5 190.5 22.22
30.5 191.5 22.17
30.5 192.5 22.42
30.5 193.5 22.41
30.5 194.5 22.36
30.5 195.5 22.32
30.5 196.5 22.35
30.5 197.5 22.29
30.5 198.5 22.27
30.5 199.5 22.25
30.5 200.5 22.22
30.5 201.5 22.26
30.5 202.5 22.33
30.5 203.5 22.4
30.5 204.5 22.44
30.5 205.5 22.48
30.5 206.5 22.54
30.5 207.5 22.62
30.5 208.5 22.72
30.5 209.5 22.75
29.5 180.5 23.22
29.5 181.5 23.31
29.5 182.5 23.46
29.5 183.5 23.63
29.5 184.5 23.84
29.5 185.5 23.78
29.5 186.5 23.59
29.5 187.5 23.36
29.5 188.5 23.19
29.5 189.5 23.07
29.5 190.5 23
29.5 191.5 22.99
29.5 192.5 23.29
29.5 193.5 23.28
29.5 194.5 23.24
29.5 195.5 23.19
29.5 196.5 23.16
29.5 197.5 23.06
29.5 198.5 22.99
29.5 199.5 22.91
29.5 200.5 22.92
29.5 201.5 22.93
29.5 202.5 22.98
29.5 203.5 23.02
29.5 204.5 23.07
29.5 205.5 23.08
29.5 206.5 23.11
29.5 207.5 23.17
29.5 208.5 23.3
29.5 209.5 23.32
28.5 180.5 23.87
28.5 181.5 23.95
28.5 182.5 24.11
28.5 183.5 24.29
28.5 184.5 24.44
28.5 185.5 24.38
28.5 186.5 24.2
28.5 187.5 23.96
28.5 188.5 23.72
28.5 189.5 23.6
28.5 190.5 23.57
28.5 191.5 23.61
28.5 192.5 23.94
28.5 193.5 23.97
28.5 194.5 23.95
28.5 195.5 23.91
28.5 196.5 23.85
28.5 197.5 23.72
28.5 198.5 23.6
28.5 199.5 23.48
28.5 200.5 23.54
28.5 201.5 23.55
28.5 202.5 23.58
28.5 203.5 23.62
28.5 204.5 23.69
28.5 205.5 23.66
28.5 206.5 23.65
28.5 207.5 23.66
28.5 208.5 23.76
28.5 209.5 23.78
27.5 180.5 24.53
27.5 181.5 24.6
27.5 182.5 24.76
27.5 183.5 24.9
27.5 184.5 24.86
27.5 185.5 24.78
27.5 186.5 24.62
27.5 187.5 24.39
27.5 188.5 24.17
27.5 189.5 24.08
27.5 190.5 24.11
27.5 191.5 24.22
27.5 192.5 24.47
27.5 193.5 24.54
27.5 194.5 24.56
27.5 195.5 24.54
27.5 196.5 24.47
27.5 197.5 24.29
27.5 198.5 24.11
27.5 199.5 23.94
27.5 200.5 24.05
27.5 201.5 24.09
27.5 202.5 24.15
27.5 203.5 24.22
27.5 204.5 24.29
27.5 205.5 24.22
27.5 206.5 24.14
27.5 207.5 24.09
27.5 208.5 24.11
27.5 209.5 24.12
26.5 180.5 25.32
26.5 181.5 25.38
26.5 182.5 25.51
26.5 183.5 25.58
26.5 184.5 25.39
26.5 185.5 25.28
26.5 186.5 25.13
26.5 187.5 24.93
26.5 188.5 24.7
26.5 189.5 24.65
26.5 190.5 24.7
26.5 191.5 24.81
26.5 192.5 24.95
26.5 193.5 25
26.5 194.5 25.02
26.5 195.5 25
26.5 196.5 24.91
26.5 197.5 24.73
26.5 198.5 24.55
26.5 199.5 24.4
26.5 200.5 24.52
26.5 201.5 24.55
26.5 202.5 24.58
26.5 203.5 24.64
26.5 204.5 24.75
26.5 205.5 24.66
26.5 206.5 24.53
26.5 207.5 24.43
26.5 208.5 24.41
26.5 209.5 24.4
25.5 180.5 25.99
25.5 181.5 26.06
25.5 182.5 26.15
25.5 183.5 26.18
25.5 184.5 25.93
25.5 185.5 25.82
25.5 186.5 25.68
25.5 187.5 25.5
25.5 188.5 25.25
25.5 189.5 25.22
25.5 190.5 25.25
25.5 191.5 25.32
25.5 192.5 25.34
25.5 193.5 25.34
25.5 194.5 25.33
25.5 195.5 25.3
25.5 196.5 25.2
25.5 197.5 25.04
25.5 198.5 24.88
25.5 199.5 24.75
25.5 200.5 24.87
25.5 201.5 24.88
25.5 202.5 24.89
25.5 203.5 24.93
25.5 204.5 25.08
25.5 205.5 24.97
25.5 206.5 24.8
25.5 207.5 24.67
25.5 208.5 24.64
25.5 209.5 24.61
24.5 180.5 26.44
24.5 181.5 26.52
24.5 182.5 26.59
24.5 183.5 26.6
24.5 184.5 26.33
24.5 185.5 26.22
24.5 186.5 26.08
24.5 187.5 25.93
24.5 188.5 25.68
24.5 189.5 25.64
24.5 190.5 25.64
24.5 191.5 25.65
24.5 192.5 25.6
24.5 193.5 25.55
24.5 194.5 25.51
24.5 195.5 25.47
24.5 196.5 25.42
24.5 197.5 25.29
24.5 198.5 25.15
24.5 199.5 25.05
24.5 200.5 25.14
24.5 201.5 25.13
24.5 202.5 25.1
24.5 203.5 25.1
24.5 204.5 25.23
24.5 205.5 25.11
24.5 206.5 24.92
24.5 207.5 24.78
24.5 208.5 24.77
24.5 209.5 24.73
23.5 180.5 26.68
23.5 181.5 26.77
23.5 182.5 26.83
23.5 183.5 26.79
23.5 184.5 26.45
23.5 185.5 26.29
23.5 186.5 26.16
23.5 187.5 26.06
23.5 188.5 25.86
23.5 189.5 25.83
23.5 190.5 25.8
23.5 191.5 25.76
23.5 192.5 25.73
23.5 193.5 25.69
23.5 194.5 25.65
23.5 195.5 25.64
23.5 196.5 25.67
23.5 197.5 25.58
23.5 198.5 25.45
23.5 199.5 25.35
23.5 200.5 25.4
23.5 201.5 25.36
23.5 202.5 25.29
23.5 203.5 25.23
23.5 204.5 25.27
23.5 205.5 25.14
23.5 206.5 24.99
23.5 207.5 24.89
23.5 208.5 24.93
23.5 209.5 24.88
22.5 180.5 26.77
22.5 181.5 26.84
22.5 182.5 26.87
22.5 183.5 26.81
22.5 184.5 26.47
22.5 185.5 26.28
22.5 186.5 26.12
22.5 187.5 26.03
22.5 188.5 25.87
22.5 189.5 25.86
22.5 190.5 25.85
22.5 191.5 25.83
22.5 192.5 25.86
22.5 193.5 25.84
22.5 194.5 25.8
22.5 195.5 25.81
22.5 196.5 25.99
22.5 197.5 25.94
22.5 198.5 25.83
22.5 199.5 25.73
22.5 200.5 25.74
22.5 201.5 25.65
22.5 202.5 25.52
22.5 203.5 25.39
22.5 204.5 25.34
22.5 205.5 25.21
22.5 206.5 25.09
22.5 207.5 25.02
22.5 208.5 25.1
22.5 209.5 25.04
21.5 180.5 26.86
21.5 181.5 26.91
21.5 182.5 26.9
21.5 183.5 26.8
21.5 184.5 26.5
21.5 185.5 26.3
21.5 186.5 26.14
21.5 187.5 26.07
21.5 188.5 26
21.5 189.5 26.02
21.5 190.5 26.05
21.5 191.5 26.07
21.5 192.5 26.14
21.5 193.5 26.13
21.5 194.5 26.08
21.5 195.5 26.09
21.5 196.5 26.31
21.5 197.5 26.27
21.5 198.5 26.18
21.5 199.5 26.1
21.5 200.5 26.07
21.5 201.5 25.94
21.5 202.5 25.77
21.5 203.5 25.6
21.5 204.5 25.5
21.5 205.5 25.38
21.5 206.5 25.26
21.5 207.5 25.21
21.5 208.5 25.28
21.5 209.5 25.19
20.5 180.5 27.04
20.5 181.5 27.04
20.5 182.5 26.99
20.5 183.5 26.87
20.5 184.5 26.62
20.5 185.5 26.45
20.5 186.5 26.31
20.5 187.5 26.27
20.5 188.5 26.34
20.5 189.5 26.39
20.5 190.5 26.44
20.5 191.5 26.49
20.5 192.5 26.53
20.5 193.5 26.5
20.5 194.5 26.43
20.5 195.5 26.41
20.5 196.5 26.56
20.5 197.5 26.5
20.5 198.5 26.42
20.5 199.5 26.34
20.5 200.5 26.32
20.5 201.5 26.19
20.5 202.5 26.01
20.5 203.5 25.84
20.5 204.5 25.71
20.5 205.5 25.59
20.5 206.5 25.49
20.5 207.5 25.42
20.5 208.5 25.4
20.5 209.5 25.26
19.5 180.5 27.32
19.5 181.5 27.28
19.5 182.5 27.18
19.5 183.5 27.05
19.5 184.5 26.86
19.5 185.5 26.73
19.5 186.5 26.63
19.5 187.5 26.63
19.5 188.5 26.77
19.5 189.5 26.84
19.5 190.5 26.91
19.5 191.5 26.94
19.5 192.5 26.9
19.5 193.5 26.84
19.5 194.5 26.74
19.5 195.5 26.66
19.5 196.5 26.68
19.5 197.5 26.55
19.5 198.5 26.44
19.5 199.5 26.36
19.5 200.5 26.4
19.5 201.5 26.3
19.5 202.5 26.16
19.5 203.5 26.02
19.5 204.5 25.91
19.5 205.5 25.8
19.5 206.5 25.69
19.5 207.5 25.6
19.5 208.5 25.43
19.5 209.5 25.24
18.5 180.5 27.57
18.5 181.5 27.49
18.5 182.5 27.37
18.5 183.5 27.24
18.5 184.5 27.08
18.5 185.5 26.99
18.5 186.5 26.94
18.5 187.5 26.97
18.5 188.5 27.12
18.5 189.5 27.17
18.5 190.5 27.21
18.5 191.5 27.19
18.5 192.5 27.07
18.5 193.5 26.96
18.5 194.5 26.84
18.5 195.5 26.71
18.5 196.5 26.58
18.5 197.5 26.43
18.5 198.5 26.31
18.5 199.5 26.24
18.5 200.5 26.27
18.5 201.5 26.21
18.5 202.5 26.11
18.5 203.5 26.02
18.5 204.5 25.93
18.5 205.5 25.8
18.5 206.5 25.69
18.5 207.5 25.57
18.5 208.5 25.35
18.5 209.5 25.15
17.5 180.5 27.77
17.5 181.5 27.67
17.5 182.5 27.54
17.5 183.5 27.41
17.5 184.5 27.26
17.5 185.5 27.21
17.5 186.5 27.19
17.5 187.5 27.21
17.5 188.5 27.32
17.5 189.5 27.34
17.5 190.5 27.33
17.5 191.5 27.27
17.5 192.5 27.1
17.5 193.5 26.96
17.5 194.5 26.82
17.5 195.5 26.67
17.5 196.5 26.46
17.5 197.5 26.32
17.5 198.5 26.2
17.5 199.5 26.13
17.5 200.5 26.1
17.5 201.5 26.05
17.5 202.5 26
17.5 203.5 25.95
17.5 204.5 25.87
17.5 205.5 25.74
17.5 206.5 25.62
17.5 207.5 25.51
17.5 208.5 25.33
17.5 209.5 25.16
16.5 180.5 27.91
16.5 181.5 27.8
16.5 182.5 27.68
16.5 183.5 27.55
16.5 184.5 27.43
16.5 185.5 27.38
16.5 186.5 27.37
16.5 187.5 27.38
16.5 188.5 27.41
16.5 189.5 27.38
16.5 190.5 27.33
16.5 191.5 27.25
16.5 192.5 27.08
16.5 193.5 26.92
16.5 194.5 26.78
16.5 195.5 26.64
16.5 196.5 26.44
16.5 197.5 26.3
16.5 198.5 26.2
16.5 199.5 26.14
16.5 200.5 26.06
16.5 201.5 26.02
16.5 202.5 25.99
16.5 203.5 25.96
16.5 204.5 25.85
16.5 205.5 25.73
16.5 206.5 25.62
16.5 207.5 25.52
16.5 208.5 25.45
16.5 209.5 25.35
15.5 180.5 27.96
15.5 181.5 27.85
15.5 182.5 27.76
15.5 183.5 27.68
15.5 184.5 27.58
15.5 185.5 27.53
15.5 186.5 27.51
15.5 187.5 27.47
15.5 188.5 27.42
15.5 189.5 27.37
15.5 190.5 27.31
15.5 191.5 27.23
15.5 192.5 27.08
15.5 193.5 26.92
15.5 194.5 26.78
15.5 195.5 26.68
15.5 196.5 26.54
15.5 197.5 26.43
15.5 198.5 26.34
15.5 199.5 26.27
15.5 200.5 26.2
15.5 201.5 26.17
15.5 202.5 26.15
15.5 203.5 26.11
15.5 204.5 25.96
15.5 205.5 25.86
15.5 206.5 25.78
15.5 207.5 25.72
15.5 208.5 25.79
15.5 209.5 25.77
14.5 180.5 28.1
14.5 181.5 28.01
14.5 182.5 27.93
14.5 183.5 27.85
14.5 184.5 27.72
14.5 185.5 27.66
14.5 186.5 27.62
14.5 187.5 27.56
14.5 188.5 27.5
14.5 189.5 27.45
14.5 190.5 27.4
14.5 191.5 27.33
14.5 192.5 27.19
14.5 193.5 27.04
14.5 194.5 26.92
14.5 195.5 26.82
14.5 196.5 26.68
14.5 197.5 26.58
14.5 198.5 26.49
14.5 199.5 26.43
14.5 200.5 26.37
14.5 201.5 26.36
14.5 202.5 26.35
14.5 203.5 26.32
14.5 204.5 26.21
14.5 205.5 26.09
14.5 206.5 25.98
14.5 207.5 25.92
14.5 208.5 26.03
14.5 209.5 26.04
13.5 180.5 28.27
13.5 181.5 28.19
13.5 182.5 28.13
13.5 183.5 28.06
13.5 184.5 27.89
13.5 185.5 27.81
13.5 186.5 27.75
13.5 187.5 27.69
13.5 188.5 27.62
13.5 189.5 27.59
13.5 190.5 27.55
13.5 191.5 27.49
13.5 192.5 27.36
13.5 193.5 27.22
13.5 194.5 27.11
13.5 195.5 27.02
13.5 196.5 26.86
13.5 197.5 26.77
13.5 198.5 26.68
13.5 199.5 26.61
13.5 200.5 26.53
13.5 201.5 26.53
13.5 202.5 26.54
13.5 203.5 26.53
13.5 204.5 26.49
13.5 205.5 26.35
13.5 206.5 26.2
13.5 207.5 26.09
13.5 208.5 26.16
13.5 209.5 26.16
12.5 180.5 28.45
12.5 181.5 28.38
12.5 182.5 28.33
12.5 183.5 28.27
12.5 184.5 28.07
12.5 185.5 27.98
12.5 186.5 27.92
12.5 187.5 27.86
12.5 188.5 27.79
12.5 189.5 27.77
12.5 190.5 27.74
12.5 191.5 27.69
12.5 192.5 27.56
12.5 193.5 27.44
12.5 194.5 27.34
12.5 195.5 27.27
12.5 196.5 27.11
12.5 197.5 27.01
12.5 198.5 26.91
12.5 199.5 26.82
12.5 200.5 26.74
12.5 201.5 26.73
12.5 202.5 26.74
12.5 203.5 26.74
12.5 204.5 26.77
12.5 205.5 26.61
12.5 206.5 26.42
12.5 207.5 26.26
12.5 208.5 26.21
12.5 209.5 26.17
11.5 180.5 28.69
11.5 181.5 28.65
11.5 182.5 28.61
11.5 183.5 28.54
11.5 184.5 28.25
11.5 185.5 28.18
11.5 186.5 28.12
11.5 187.5 28.07
11.5 188.5 28.03
11.5 189.5 28.01
11.5 190.5 27.98
11.5 191.5 27.93
11.5 192.5 27.78
11.5 193.5 27.67
11.5 194.5 27.59
11.5 195.5 27.56
11.5 196.5 27.48
11.5 197.5 27.4
11.5 198.5 27.29
11.5 199.5 27.16
11.5 200.5 27.07
11.5 201.5 27.04
11.5 202.5 27.04
11.5 203.5 27.05
11.5 204.5 27.08
11.5 205.5 26.91
11.5 206.5 26.68
11.5 207.5 26.46
11.5 208.5 26.28
11.5 209.5 26.16
10.5 180.5 28.87
10.5 181.5 28.84
10.5 182.5 28.81
10.5 183.5 28.75
10.5 184.5 28.51
10.5 185.5 28.45
10.5 186.5 28.4
10.5 187.5 28.37
10.5 188.5 28.34
10.5 189.5 28.32
10.5 190.5 28.27
10.5 191.5 28.23
10.5 192.5 28.1
10.5 193.5 28.02
10.5 194.5 27.96
10.5 195.5 27.96
10.5 196.5 27.99
10.5 197.5 27.94
10.5 198.5 27.85
10.5 199.5 27.73
10.5 200.5 27.65
10.5 201.5 27.6
10.5 202.5 27.58
10.5 203.5 27.58
10.5 204.5 27.56
10.5 205.5 27.37
10.5 206.5 27.12
10.5 207.5 26.87
10.5 208.5 26.67
10.5 209.5 26.55
