39.5 180.5 10.7
39.5 181.5 10.62
39.5 182.5 10.55
39.5 183.5 10.65
39.5 184.5 11.19
39.5 185.5 11.14
39.5 186.5 10.83
39.5 187.5 10.65
39.5 188.5 10.9
39.5 189.5 10.83
39.5 190.5 10.61
39.5 191.5 10.45
39.5 192.5 10.56
39.5 193.5 10.6
39.5 194.5 10.59
39.5 195.5 10.5
39.5 196.5 10.39
39.5 197.5 10.27
39.5 198.5 10.23
39.5 199.5 10.28
39.5 200.5 10.37
39.5 201.5 10.4
39.5 202.5 10.38
39.5 203.5 10.41
39.5 204.5 10.64
39.5 205.5 10.63
39.5 206.5 10.56
39.5 207.5 10.62
39.5 208.5 10.96
39.5 209.5 11.21
38.5 180.5 11.87
38.5 181.5 11.82
38.5 182.5 11.81
38.5 183.5 11.93
38.5 184.5 12.33
38.5 185.5 12.22
38.5 186.5 11.88
38.5 187.5 11.68
38.5 188.5 11.99
38.5 189.5 11.88
38.5 190.5 11.61
38.5 191.5 11.4
38.5 192.5 11.52
38.5 193.5 11.54
38.5 194.5 11.52
38.5 195.5 11.39
38.5 196.5 11.15
38.5 197.5 11
38.5 198.5 10.93
38.5 199.5 10.98
38.5 200.5 11.12
38.5 201.5 11.14
38.5 202.5 11.12
38.5 203.5 11.15
38.5 204.5 11.44
38.5 205.5 11.46
38.5 206.5 11.43
38.5 207.5 11.49
38.5 208.5 11.81
38.5 209.5 12.02
37.5 180.5 12.97
37.5 181.5 12.89
37.5 182.5 12.92
37.5 183.5 13.01
37.5 184.5 13.17
37.5 185.5 13.01
37.5 186.5 12.68
37.5 187.5 12.47
37.5 188.5 12.73
37.5 189.5 12.56
37.5 190.5 12.23
37.5 191.5 11.97
37.5 192.5 12.09
37.5 193.5 12.1
37.5 194.5 12.09
37.5 195.5 11.99
37.5 196.5 11.76
37.5 197.5 11.64
37.5 198.5 11.59
37.5 199.5 11.64
37.5 200.5 11.81
37.5 201.5 11.84
37.5 202.5 11.81
37.5 203.5 11.84
37.5 204.5 12.15
37.5 205.5 12.22
37.5 206.5 12.23
37.5 207.5 12.33
37.5 208.5 12.65
37.5 209.5 12.84
36.5 180.5 13.87
36.5 181.5 13.68
36.5 182.5 13.72
36.5 183.5 13.79
36.5 184.5 13.69
36.5 185.5 13.49
36.5 186.5 13.19
36.5 187.5 12.99
36.5 188.5 13.16
36.5 189.5 12.93
36.5 190.5 12.56
36.5 191.5 12.28
36.5 192.5 12.39
36.5 193.5 12.4
36.5 194.5 12.42
36.5 195.5 12.39
36.5 196.5 12.27
36.5 197.5 12.21
36.5 198.5 12.2
36.5 199.5 12.26
36.5 200.5 12.47
36.5 201.5 12.52
36.5 202.5 12.51
36.5 203.5 12.55
36.5 204.5 12.85
36.5 205.5 12.93
36.5 206.5 12.97
36.5 207.5 13.09
36.5 208.5 13.46
36.5 209.5 13.64
35.5 180.5 14.48
35.5 181.5 14.23
35.5 182.5 14.31
35.5 183.5 14.4
35.5 184.5 14.21
35.5 185.5 14
35.5 186.5 13.73
35.5 187.5 13.52
35.5 188.5 13.5
35.5 189.5 13.25
35.5 190.5 12.91
35.5 191.5 12.67
35.5 192.5 12.74
35.5 193.5 12.77
35.5 194.5 12.81
35.5 195.5 12.83
35.5 196.5 12.85
35.5 197.5 12.84
35.5 198.5 12.85
35.5 199.5 12.92
35.5 200.5 13.14
35.5 201.5 13.24
35.5 202.5 13.3
35.5 203.5 13.39
35.5 204.5 13.68
35.5 205.5 13.76
35.5 206.5 13.79
35.5 207.5 13.9
35.5 208.5 14.28
35.5 209.5 14.45
34.5 180.5 14.83
34.5 181.5 14.61
34.5 182.5 14.71
34.5 183.5 14.8
34.5 184.5 14.62
34.5 185.5 14.41
34.5 186.5 14.19
34.5 187.5 14.01
34.5 188.5 13.92
34.5 189.5 13.72
34.5 190.5 13.46
34.5 191.5 13.29
34.5 192.5 13.35
34.5 193.5 13.41
34.5 194.5 13.5
34.5 195.5 13.55
34.5 196.5 13.59
34.5 197.5 13.6
34.5 198.5 13.64
34.5 199.5 13.73
34.5 200.5 13.95
34.5 201.5 14.07
34.5 202.5 14.16
34.5 203.5 14.28
34.5 204.5 14.54
34.5 205.5 14.62
34.5 206.5 14.65
34.5 207.5 14.75
34.5 208.5 15.15
34.5 209.5 15.32
33.5 180.5 15.23
33.5 181.5 15.13
33.5 182.5 15.26
33.5 183.5 15.36
33.5 184.5 15.22
33.5 185.5 15.04
33.5 186.5 14.85
33.5 187.5 14.69
33.5 188.5 14.55
33.5 189.5 14.42
33.5 190.5 14.26
33.5 191.5 14.19
33.5 192.5 14.22
33.5 193.5 14.32
33.5 194.5 14.43
33.5 195.5 14.5
33.5 196.5 14.47
33.5 197.5 14.49
33.5 198.5 14.53
33.5 199.5 14.61
33.5 200.5 14.79
33.5 201.5 14.91
33.5 202.5 15
33.5 203.5 15.13
33.5 204.5 15.35
33.5 205.5 15.42
33.5 206.5 15.46
33.5 207.5 15.56
33.5 208.5 15.9
33.5 209.5 16.06
32.5 180.5 15.83
32.5 181.5 15.89
32.5 182.5 16.06
32.5 183.5 16.18
32.5 184.5 16.11
32.5 185.5 15.94
32.5 186.5 15.77
32.5 187.5 15.6
32.5 188.5 15.42
32.5 189.5 15.35
32.5 190.5 15.29
32.5 191.5 15.29
32.5 192.5 15.27
32.5 193.5 15.36
32.5 194.5 15.48
32.5 195.5 15.54
32.5 196.5 15.43
32.5 197.5 15.43
32.5 198.5 15.47
32.5 199.5 15.53
32.5 200.5 15.65
32.5 201.5 15.73
32.5 202.5 15.8
32.5 203.5 15.91
32.5 204.5 16.05
32.5 205.5 16.14
32.5 206.5 16.19
32.5 207.5 16.27
32.5 208.5 16.5
32.5 209.5 16.62
31.5 180.5 16.66
31.5 181.5 16.85
31.5 182.5 17.09
31.5 183.5 17.24
31.5 184.5 17.19
31.5 185.5 16.98
31.5 186.5 16.79
31.5 187.5 16.59
31.5 188.5 16.44
31.5 189.5 16.49
31.5 190.5 16.57
31.5 191.5 16.65
31.5 192.5 16.57
31.5 193.5 16.58
31.5 194.5 16.63
31.5 195.5 16.64
31.5 196.5 16.47
31.5 197.5 16.46
31.5 198.5 16.51
31.5 199.5 16.57
31.5 200.5 16.63
31.5 201.5 16.69
31.5 202.5 16.74
31.5 203.5 16.81
31.5 204.5 16.84
31.5 205.5 16.9
31.5 206.5 16.95
31.5 207.5 17.02
31.5 208.5 17.09
31.5 209.5 17.18
30.5 180.5 17.56
30.5 181.5 17.73
30.5 182.5 17.93
30.5 183.5 18.03
30.5 184.5 17.88
30.5 185.5 17.65
30.5 186.5 17.46
30.5 187.5 17.31
30.5 188.5 17.32
30.5 189.5 17.47
30.5 190.5 17.61
30.5 191.5 17.74
30.5 192.5 17.77
30.5 193.5 17.77
30.5 194.5 17.76
30.5 195.5 17.76
30.5 196.5 17.59
30.5 197.5 17.59
30.5 198.5 17.65
30.5 199.5 17.71
30.5 200.5 17.68
30.5 201.5 17.72
30.5 202.5 17.74
30.5 203.5 17.74
30.5 204.5 17.61
30.5 205.5 17.66
30.5 206.5 17.73
30.5 207.5 17.84
30.5 208.5 17.91
30.5 209.5 17.98
29.5 180.5 18.55
29.5 181.5 18.62
29.5 182.5 18.73
29.5 183.5 18.74
29.5 184.5 18.42
29.5 185.5 18.17
29.5 186.5 18.01
29.5 187.5 17.94
29.5 188.5 18.12
29.5 189.5 18.34
29.5 190.5 18.5
29.5 191.5 18.66
29.5 192.5 18.87
29.5 193.5 18.88
29.5 194.5 18.85
29.5 195.5 18.84
29.5 196.5 18.71
29.5 197.5 18.73
29.5 198.5 18.79
29.5 199.5 18.86
29.5 200.5 18.78
29.5 201.5 18.82
29.5 202.5 18.8
29.5 203.5 18.74
29.5 204.5 18.5
29.5 205.5 18.52
29.5 206.5 18.6
29.5 207.5 18.73
29.5 208.5 18.81
29.5 209.5 18.85
28.5 180.5 19.59
28.5 181.5 19.57
28.5 182.5 19.6
28.5 183.5 19.52
28.5 184.5 19.03
28.5 185.5 18.79
28.5 186.5 18.68
28.5 187.5 18.69
28.5 188.5 18.93
28.5 189.5 19.15
28.5 190.5 19.29
28.5 191.5 19.45
28.5 192.5 19.77
28.5 193.5 19.8
28.5 194.5 19.75
28.5 195.5 19.76
28.5 196.5 19.74
28.5 197.5 19.77
28.5 198.5 19.82
28.5 199.5 19.91
28.5 200.5 19.84
28.5 201.5 19.9
28.5 202.5 19.85
28.5 203.5 19.74
28.5 204.5 19.48
28.5 205.5 19.46
28.5 206.5 19.51
28.5 207.5 19.63
28.5 208.5 19.68
28.5 209.5 19.69
27.5 180.5 20.57
27.5 181.5 20.52
27.5 182.5 20.5
27.5 183.5 20.36
27.5 184.5 19.83
27.5 185.5 19.69
27.5 186.5 19.69
27.5 187.5 19.79
27.5 188.5 19.86
27.5 189.5 20.02
27.5 190.5 20.11
27.5 191.5 20.21
27.5 192.5 20.45
27.5 193.5 20.44
27.5 194.5 20.37
27.5 195.5 20.42
27.5 196.5 20.57
27.5 197.5 20.59
27.5 198.5 20.61
27.5 199.5 20.72
27.5 200.5 20.8
27.5 201.5 20.87
27.5 202.5 20.78
27.5 203.5 20.62
27.5 204.5 20.4
27.5 205.5 20.3
27.5 206.5 20.29
27.5 207.5 20.39
27.5 208.5 20.49
27.5 209.5 20.52
26.5 180.5 21.49
26.5 181.5 21.46
26.5 182.5 21.45
26.5 183.5 21.34
26.5 184.5 20.91
26.5 185.5 20.88
26.5 186.5 20.96
26.5 187.5 21.07
26.5 188.5 20.98
26.5 189.5 20.99
26.5 190.5 20.97
26.5 191.5 20.95
26.5 192.5 21.01
26.5 193.5 20.99
26.5 194.5 20.97
26.5 195.5 21.1
26.5 196.5 21.37
26.5 197.5 21.4
26.5 198.5 21.37
26.5 199.5 21.44
26.5 200.5 21.58
26.5 201.5 21.63
26.5 202.5 21.51
26.5 203.5 21.33
26.5 204.5 21.13
26.5 205.5 20.99
26.5 206.5 20.91
26.5 207.5 20.97
26.5 208.5 21.13
26.5 209.5 21.12
25.5 180.5 22.32
25.5 181.5 22.35
25.5 182.5 22.36
25.5 183.5 22.3
25.5 184.5 22.02
25.5 185.5 22.1
25.5 186.5 22.25
25.5 187.5 22.35
25.5 188.5 22.14
25.5 189.5 22.02
25.5 190.5 21.88
25.5 191.5 21.74
25.5 192.5 21.65
25.5 193.5 21.64
25.5 194.5 21.69
25.5 195.5 21.88
25.5 196.5 22.17
25.5 197.5 22.17
25.5 198.5 22.07
25.5 199.5 22.06
25.5 200.5 22.2
25.5 201.5 22.23
25.5 202.5 22.1
25.5 203.5 21.95
25.5 204.5 21.8
25.5 205.5 21.65
25.5 206.5 21.53
25.5 207.5 21.54
25.5 208.5 21.7
25.5 209.5 21.63
24.5 180.5 22.97
24.5 181.5 23.03
24.5 182.5 23.08
24.5 183.5 23.07
24.5 184.5 22.91
24.5 185.5 23.05
24.5 186.5 23.24
24.5 187.5 23.33
24.5 188.5 23.09
24.5 189.5 22.9
24.5 190.5 22.7
24.5 191.5 22.51
24.5 192.5 22.41
24.5 193.5 22.43
24.5 194.5 22.52
24.5 195.5 22.72
24.5 196.5 22.93
24.5 197.5 22.88
24.5 198.5 22.7
24.5 199.5 22.61
24.5 200.5 22.7
24.5 201.5 22.7
24.5 202.5 22.6
24.5 203.5 22.52
24.5 204.5 22.47
24.5 205.5 22.35
24.5 206.5 22.21
24.5 207.5 22.16
24.5 208.5 22.24
24.5 209.5 22.11
23.5 180.5 23.32
23.5 181.5 23.42
23.5 182.5 23.53
23.5 183.5 23.6
23.5 184.5 23.52
23.5 185.5 23.65
23.5 186.5 23.81
23.5 187.5 23.85
23.5 188.5 23.64
23.5 189.5 23.5
23.5 190.5 23.34
23.5 191.5 23.23
23.5 192.5 23.35
23.5 193.5 23.4
23.5 194.5 23.47
23.5 195.5 23.55
23.5 196.5 23.63
23.5 197.5 23.53
23.5 198.5 23.34
23.5 199.5 23.18
23.5 200.5 23.2
23.5 201.5 23.17
23.5 202.5 23.1
23.5 203.5 23.08
23.5 204.5 23.13
23.5 205.5 23.02
23.5 206.5 22.86
23.5 207.5 22.74
23.5 208.5 22.67
23.5 209.5 22.56
22.5 180.5 23.68
22.5 181.5 23.75
22.5 182.5 23.87
22.5 183.5 23.96
22.5 184.5 23.94
22.5 185.5 24.07
22.5 186.5 24.21
22.5 187.5 24.27
22.5 188.5 24.09
22.5 189.5 23.99
22.5 190.5 23.86
22.5 191.5 23.8
22.5 192.5 23.95
22.5 193.5 24.02
22.5 194.5 24.07
22.5 195.5 24.09
22.5 196.5 24.06
22.5 197.5 23.92
22.5 198.5 23.71
22.5 199.5 23.55
22.5 200.5 23.57
22.5 201.5 23.56
22.5 202.5 23.54
22.5 203.5 23.57
22.5 204.5 23.61
22.5 205.5 23.51
22.5 206.5 23.33
22.5 207.5 23.18
22.5 208.5 22.98
22.5 209.5 22.83
21.5 180.5 24.12
21.5 181.5 24.16
21.5 182.5 24.28
21.5 183.5 24.39
21.5 184.5 24.42
21.5 185.5 24.54
21.5 186.5 24.66
21.5 187.5 24.72
21.5 188.5 24.58
21.5 189.5 24.51
21.5 190.5 24.43
21.5 191.5 24.38
21.5 192.5 24.44
21.5 193.5 24.46
21.5 194.5 24.46
21.5 195.5 24.42
21.5 196.5 24.33
21.5 197.5 24.17
21.5 198.5 23.99
21.5 199.5 23.86
21.5 200.5 23.92
21.5 201.5 23.93
21.5 202.5 23.93
21.5 203.5 23.95
21.5 204.5 23.9
21.5 205.5 23.78
21.5 206.5 23.6
21.5 207.5 23.43
21.5 208.5 23.2
21.5 209.5 23.04
20.5 180.5 24.68
20.5 181.5 24.71
20.5 182.5 24.82
20.5 183.5 24.93
20.5 184.5 24.97
20.5 185.5 25.08
20.5 186.5 25.17
20.5 187.5 25.2
20.5 188.5 25.1
20.5 189.5 25.04
20.5 190.5 24.97
20.5 191.5 24.91
20.5 192.5 24.86
20.5 193.5 24.81
20.5 194.5 24.74
20.5 195.5 24.66
20.5 196.5 24.54
20.5 197.5 24.41
20.5 198.5 24.28
20.5 199.5 24.2
20.5 200.5 24.28
20.5 201.5 24.29
20.5 202.5 24.27
20.5 203.5 24.23
20.5 204.5 24.08
20.5 205.5 23.92
20.5 206.5 23.74
20.5 207.5 23.57
20.5 208.5 23.4
20.5 209.5 23.27
19.5 180.5 25.23
19.5 181.5 25.3
19.5 182.5 25.4
19.5 183.5 25.48
19.5 184.5 25.42
19.5 185.5 25.49
19.5 186.5 25.56
19.5 187.5 25.58
19.5 188.5 25.53
19.5 189.5 25.47
19.5 190.5 25.41
19.5 191.5 25.34
19.5 192.5 25.24
19.5 193.5 25.13
19.5 194.5 25.02
19.5 195.5 24.91
19.5 196.5 24.81
19.5 197.5 24.74
19.5 198.5 24.66
19.5 199.5 24.6
19.5 200.5 24.63
19.5 201.5 24.59
19.5 202.5 24.51
19.5 203.5 24.39
19.5 204.5 24.22
19.5 205.5 24.02
19.5 206.5 23.84
19.5 207.5 23.71
19.5 208.5 23.64
19.5 209.5 23.59
18.5 180.5 25.74
18.5 181.5 25.78
18.5 182.5 25.82
18.5 183.5 25.83
18.5 184.5 25.71
18.5 185.5 25.74
18.5 186.5 25.77
18.5 187.5 25.76
18.5 188.5 25.69
18.5 189.5 25.63
18.5 190.5 25.57
18.5 191.5 25.52
18.5 192.5 25.43
18.5 193.5 25.32
18.5 194.5 25.21
18.5 195.5 25.1
18.5 196.5 24.99
18.5 197.5 24.93
18.5 198.5 24.86
18.5 199.5 24.78
18.5 200.5 24.76
18.5 201.5 24.68
18.5 202.5 24.58
18.5 203.5 24.44
18.5 204.5 24.32
18.5 205.5 24.15
18.5 206.5 24.02
18.5 207.5 23.95
18.5 208.5 23.96
18.5 209.5 23.93
17.5 180.5 26.05
17.5 181.5 26.05
17.5 182.5 26.03
17.5 183.5 25.97
17.5 184.5 25.81
17.5 185.5 25.8
17.5 186.5 25.8
17.5 187.5 25.77
17.5 188.5 25.7
17.5 189.5 25.65
17.5 190.5 25.6
17.5 191.5 25.58
17.5 192.5 25.53
17.5 193.5 25.44
17.5 194.5 25.33
17.5 195.5 25.23
17.5 196.5 25.12
17.5 197.5 25.04
17.5 198.5 24.95
17.5 199.5 24.85
17.5 200.5 24.8
17.5 201.5 24.69
17.5 202.5 24.59
17.5 203.5 24.48
17.5 204.5 24.41
17.5 205.5 24.3
17.5 206.5 24.24
17.5 207.5 24.22
17.5 208.5 24.27
17.5 209.5 24.25
16.5 180.5 26.17
16.5 181.5 26.13
16.5 182.5 26.06
16.5 183.5 25.97
16.5 184.5 25.83
16.5 185.5 25.8
16.5 186.5 25.78
16.5 187.5 25.76
16.5 188.5 25.72
16.5 189.5 25.68
16.5 190.5 25.65
16.5 191.5 25.63
16.5 192.5 25.6
16.5 193.5 25.53
16.5 194.5 25.43
16.5 195.5 25.32
16.5 196.5 25.2
16.5 197.5 25.1
16.5 198.5 25
16.5 199.5 24.89
16.5 200.5 24.84
16.5 201.5 24.74
16.5 202.5 24.66
16.5 203.5 24.57
16.5 204.5 24.57
16.5 205.5 24.52
16.5 206.5 24.51
16.5 207.5 24.53
16.5 208.5 24.57
16.5 209.5 24.54
15.5 180.5 26.13
15.5 181.5 26.06
15.5 182.5 25.97
15.5 183.5 25.89
15.5 184.5 25.86
15.5 185.5 25.87
15.5 186.5 25.87
15.5 187.5 25.87
15.5 188.5 25.88
15.5 189.5 25.82
15.5 190.5 25.77
15.5 191.5 25.73
15.5 192.5 25.67
15.5 193.5 25.61
15.5 194.5 25.55
15.5 195.5 25.45
15.5 196.5 25.34
15.5 197.5 25.22
15.5 198.5 25.1
15.5 199.5 24.98
15.5 200.5 24.97
15.5 201.5 24.89
15.5 202.5 24.85
15.5 203.5 24.82
15.5 204.5 24.88
15.5 205.5 24.88
15.5 206.5 24.89
15.5 207.5 24.89
15.5 208.5 24.89
15.5 209.5 24.81
14.5 180.5 26.17
14.5 181.5 26.1
14.5 182.5 26.03
14.5 183.5 25.98
14.5 184.5 26.01
14.5 185.5 26.04
14.5 186.5 26.04
14.5 187.5 26.04
14.5 188.5 26.06
14.5 189.5 25.99
14.5 190.5 25.92
14.5 191.5 25.86
14.5 192.5 25.83
14.5 193.5 25.78
14.5 194.5 25.73
14.5 195.5 25.66
14.5 196.5 25.58
14.5 197.5 25.46
14.5 198.5 25.35
14.5 199.5 25.23
14.5 200.5 25.22
14.5 201.5 25.17
14.5 202.5 25.14
14.5 203.5 25.14
14.5 204.5 25.25
14.5 205.5 25.27
14.5 206.5 25.27
14.5 207.5 25.26
14.5 208.5 25.2
14.5 209.5 25.09
13.5 180.5 26.25
13.5 181.5 26.21
13.5 182.5 26.18
13.5 183.5 26.17
13.5 184.5 26.24
13.5 185.5 26.27
13.5 186.5 26.27
13.5 187.5 26.26
13.5 188.5 26.26
13.5 189.5 26.18
13.5 190.5 26.08
13.5 191.5 26
13.5 192.5 26.03
13.5 193.5 26.01
13.5 194.5 25.99
13.5 195.5 25.94
13.5 196.5 25.92
13.5 197.5 25.83
13.5 198.5 25.74
13.5 199.5 25.64
13.5 200.5 25.6
13.5 201.5 25.56
13.5 202.5 25.55
13.5 203.5 25.55
13.5 204.5 25.64
13.5 205.5 25.64
13.5 206.5 25.61
13.5 207.5 25.57
13.5 208.5 25.47
13.5 209.5 25.37
12.5 180.5 26.36
12.5 181.5 26.35
12.5 182.5 26.36
12.5 183.5 26.4
12.5 184.5 26.5
12.5 185.5 26.53
12.5 186.5 26.52
12.5 187.5 26.48
12.5 188.5 26.47
12.5 189.5 26.38
12.5 190.5 26.28
12.5 191.5 26.2
12.5 192.5 26.28
12.5 193.5 26.28
12.5 194.5 26.28
12.5 195.5 26.27
12.5 196.5 26.31
12.5 197.5 26.27
12.5 198.5 26.21
12.5 199.5 26.14
12.5 200.5 26.05
12.5 201.5 26.02
12.5 202.5 26.01
12.5 203.5 25.99
12.5 204.5 25.99
12.5 205.5 25.94
12.5 206.5 25.88
12.5 207.5 25.8
12.5 208.5 25.7
12.5 209.5 25.63
11.5 180.5 26.46
11.5 181.5 26.49
11.5 182.5 26.54
11.5 183.5 26.63
11.5 184.5 26.73
11.5 185.5 26.78
11.5 186.5 26.78
11.5 187.5 26.76
11.5 188.5 26.74
11.5 189.5 26.68
11.5 190.5 26.61
11.5 191.5 26.53
11.5 192.5 26.61
11.5 193.5 26.6
11.5 194.5 26.6
11.5 195.5 26.62
11.5 196.5 26.69
11.5 197.5 26.68
11.5 198.5 26.66
11.5 199.5 26.62
11.5 200.5 26.5
11.5 201.5 26.47
11.5 202.5 26.46
11.5 203.5 26.41
11.5 204.5 26.27
11.5 205.5 26.18
11.5 206.5 26.08
11.5 207.5 25.97
11.5 208.5 25.9
11.5 209.5 25.86
10.5 180.5 26.65
10.5 181.5 26.69
10.5 182.5 26.77
10.5 183.5 26.89
10.5 184.5 27.02
10.5 185.5 27.08
10.5 186.5 27.09
10.5 187.5 27.08
10.5 188.5 27.1
10.5 189.5 27.09
10.5 190.5 27.05
10.5 191.5 27.01
10.5 192.5 27
10.5 193.5 26.97
10.5 194.5 26.94
10.5 195.5 26.92
10.5 196.5 26.95
10.5 197.5 26.96
10.5 198.5 26.95
10.5 199.5 26.92
10.5 200.5 26.84
10.5 201.5 26.82
10.5 202.5 26.8
10.5 203.5 26.76
10.5 204.5 26.59
10.5 205.5 26.5
10.5 206.5 26.4
10.5 207.5 26.27
10.5 208.5 26.18
10.5 209.5 26.17
