39.5 180.5 10.85
39.5 181.5 10.96
39.5 182.5 11.01
39.5 183.5 11.16
39.5 184.5 11.66
39.5 185.5 11.55
39.5 186.5 11.18
39.5 187.5 10.87
39.5 188.5 11
39.5 189.5 10.93
39.5 190.5 10.83
39.5 191.5 10.73
39.5 192.5 10.75
39.5 193.5 10.83
39.5 194.5 10.96
39.5 195.5 10.95
39.5 196.5 10.68
39.5 197.5 10.49
39.5 198.5 10.41
39.5 199.5 10.37
39.5 200.5 10.49
39.5 201.5 10.47
39.5 202.5 10.46
39.5 203.5 10.49
39.5 204.5 10.71
39.5 205.5 10.58
39.5 206.5 10.41
39.5 207.5 10.38
39.5 208.5 10.66
39.5 209.5 10.86
38.5 180.5 11.76
38.5 181.5 11.87
38.5 182.5 11.99
38.5 183.5 12.22
38.5 184.5 12.71
38.5 185.5 12.62
38.5 186.5 12.25
38.5 187.5 11.96
38.5 188.5 12.13
38.5 189.5 12.02
38.5 190.5 11.84
38.5 191.5 11.62
38.5 192.5 11.57
38.5 193.5 11.6
38.5 194.5 11.72
38.5 195.5 11.67
38.5 196.5 11.36
38.5 197.5 11.15
38.5 198.5 11.06
38.5 199.5 11.04
38.5 200.5 11.18
38.5 201.5 11.16
38.5 202.5 11.13
38.5 203.5 11.14
38.5 204.5 11.37
38.5 205.5 11.27
38.5 206.5 11.15
38.5 207.5 11.11
38.5 208.5 11.33
38.5 209.5 11.48
37.5 180.5 12.69
37.5 181.5 12.73
37.5 182.5 12.85
37.5 183.5 13.08
37.5 184.5 13.5
37.5 185.5 13.42
37.5 186.5 13.09
37.5 187.5 12.85
37.5 188.5 13.05
37.5 189.5 12.88
37.5 190.5 12.57
37.5 191.5 12.22
37.5 192.5 12.07
37.5 193.5 12.05
37.5 194.5 12.14
37.5 195.5 12.11
37.5 196.5 11.83
37.5 197.5 11.65
37.5 198.5 11.6
37.5 199.5 11.61
37.5 200.5 11.74
37.5 201.5 11.74
37.5 202.5 11.7
37.5 203.5 11.71
37.5 204.5 11.93
37.5 205.5 11.9
37.5 206.5 11.83
37.5 207.5 11.83
37.5 208.5 12
37.5 209.5 12.13
36.5 180.5 13.71
36.5 181.5 13.63
36.5 182.5 13.69
36.5 183.5 13.84
36.5 184.5 14.09
36.5 185.5 13.98
36.5 186.5 13.68
36.5 187.5 13.49
36.5 188.5 13.72
36.5 189.5 13.48
36.5 190.5 13.06
36.5 191.5 12.6
36.5 192.5 12.39
36.5 193.5 12.34
36.5 194.5 12.43
36.5 195.5 12.42
36.5 196.5 12.21
36.5 197.5 12.07
36.5 198.5 12.07
36.5 199.5 12.12
36.5 200.5 12.25
36.5 201.5 12.25
36.5 202.5 12.23
36.5 203.5 12.26
36.5 204.5 12.47
36.5 205.5 12.49
36.5 206.5 12.49
36.5 207.5 12.53
36.5 208.5 12.69
36.5 209.5 12.83
35.5 180.5 14.73
35.5 181.5 14.59
35.5 182.5 14.61
35.5 183.5 14.64
35.5 184.5 14.66
35.5 185.5 14.46
35.5 186.5 14.18
35.5 187.5 14.03
35.5 188.5 14.27
35.5 189.5 13.98
35.5 190.5 13.5
35.5 191.5 13.02
35.5 192.5 12.77
35.5 193.5 12.73
35.5 194.5 12.83
35.5 195.5 12.84
35.5 196.5 12.63
35.5 197.5 12.53
35.5 198.5 12.56
35.5 199.5 12.64
35.5 200.5 12.84
35.5 201.5 12.87
35.5 202.5 12.88
35.5 203.5 12.96
35.5 204.5 13.19
35.5 205.5 13.24
35.5 206.5 13.25
35.5 207.5 13.31
35.5 208.5 13.45
35.5 209.5 13.61
34.5 180.5 15.57
34.5 181.5 15.45
34.5 182.5 15.42
34.5 183.5 15.33
34.5 184.5 15.14
34.5 185.5 14.85
34.5 186.5 14.58
34.5 187.5 14.47
34.5 188.5 14.66
34.5 189.5 14.38
34.5 190.5 13.92
34.5 191.5 13.52
34.5 192.5 13.35
34.5 193.5 13.37
34.5 194.5 13.49
34.5 195.5 13.53
34.5 196.5 13.3
34.5 197.5 13.22
34.5 198.5 13.25
34.5 199.5 13.33
34.5 200.5 13.56
34.5 201.5 13.6
34.5 202.5 13.64
34.5 203.5 13.75
34.5 204.5 14.07
34.5 205.5 14.14
34.5 206.5 14.15
34.5 207.5 14.22
34.5 208.5 14.42
34.5 209.5 14.57
33.5 180.5 16.25
33.5 181.5 16.2
33.5 182.5 16.17
33.5 183.5 16.03
33.5 184.5 15.71
33.5 185.5 15.41
33.5 186.5 15.19
33.5 187.5 15.09
33.5 188.5 15.17
33.5 189.5 14.91
33.5 190.5 14.53
33.5 191.5 14.24
33.5 192.5 14.17
33.5 193.5 14.24
33.5 194.5 14.38
33.5 195.5 14.44
33.5 196.5 14.22
33.5 197.5 14.15
33.5 198.5 14.16
33.5 199.5 14.2
33.5 200.5 14.36
33.5 201.5 14.38
33.5 202.5 14.41
33.5 203.5 14.55
33.5 204.5 14.93
33.5 205.5 15.01
33.5 206.5 15.03
33.5 207.5 15.11
33.5 208.5 15.35
33.5 209.5 15.47
32.5 180.5 16.78
32.5 181.5 16.8
32.5 182.5 16.83
32.5 183.5 16.74
32.5 184.5 16.42
32.5 185.5 16.19
32.5 186.5 16.04
32.5 187.5 15.94
32.5 188.5 15.91
32.5 189.5 15.66
32.5 190.5 15.37
32.5 191.5 15.16
32.5 192.5 15.15
32.5 193.5 15.21
32.5 194.5 15.34
32.5 195.5 15.44
32.5 196.5 15.31
32.5 197.5 15.26
32.5 198.5 15.24
32.5 199.5 15.2
32.5 200.5 15.22
32.5 201.5 15.19
32.5 202.5 15.2
32.5 203.5 15.33
32.5 204.5 15.72
32.5 205.5 15.81
32.5 206.5 15.84
32.5 207.5 15.94
32.5 208.5 16.2
32.5 209.5 16.28
31.5 180.5 17.42
31.5 181.5 17.48
31.5 182.5 17.59
31.5 183.5 17.58
31.5 184.5 17.29
31.5 185.5 17.16
31.5 186.5 17.08
31.5 187.5 17
31.5 188.5 16.97
31.5 189.5 16.78
31.5 190.5 16.56
31.5 191.5 16.34
31.5 192.5 16.31
31.5 193.5 16.24
31.5 194.5 16.27
31.5 195.5 16.36
31.5 196.5 16.42
31.5 197.5 16.37
31.5 198.5 16.28
31.5 199.5 16.2
31.5 200.5 16.14
31.5 201.5 16.09
31.5 202.5 16.07
31.5 203.5 16.18
31.5 204.5 16.58
31.5 205.5 16.66
31.5 206.5 16.68
31.5 207.5 16.77
31.5 208.5 17.01
31.5 209.5 17.04
30.5 180.5 18.11
30.5 181.5 18.13
30.5 182.5 18.22
30.5 183.5 18.23
30.5 184.5 18.01
30.5 185.5 17.94
30.5 186.5 17.92
30.5 187.5 17.89
30.5 188.5 17.96
30.5 189.5 17.83
30.5 190.5 17.67
30.5 191.5 17.47
30.5 192.5 17.42
30.5 193.5 17.25
30.5 194.5 17.2
30.5 195.5 17.26
30.5 196.5 17.38
30.5 197.5 17.32
30.5 198.5 17.19
30.5 199.5 17.12
30.5 200.5 17.11
30.5 201.5 17.08
30.5 202.5 17.02
30.5 203.5 17.08
30.5 204.5 17.39
30.5 205.5 17.46
30.5 206.5 17.48
30.5 207.5 17.57
30.5 208.5 17.76
30.5 209.5 17.76
29.5 180.5 18.95
29.5 181.5 18.9
29.5 182.5 18.92
29.5 183.5 18.87
29.5 184.5 18.62
29.5 185.5 18.55
29.5 186.5 18.55
29.5 187.5 18.55
29.5 188.5 18.75
29.5 189.5 18.71
29.5 190.5 18.64
29.5 191.5 18.51
29.5 192.5 18.5
29.5 193.5 18.3
29.5 194.5 18.2
29.5 195.5 18.19
29.5 196.5 18.27
29.5 197.5 18.18
29.5 198.5 18.04
29.5 199.5 18.01
29.5 200.5 18.12
29.5 201.5 18.13
29.5 202.5 18.06
29.5 203.5 18.06
29.5 204.5 18.23
29.5 205.5 18.25
29.5 206.5 18.26
29.5 207.5 18.34
29.5 208.5 18.47
29.5 209.5 18.46
28.5 180.5 19.91
28.5 181.5 19.81
28.5 182.5 19.77
28.5 183.5 19.63
28.5 184.5 19.29
28.5 185.5 19.16
28.5 186.5 19.14
28.5 187.5 19.15
28.5 188.5 19.41
28.5 189.5 19.44
28.5 190.5 19.45
28.5 191.5 19.43
28.5 192.5 19.51
28.5 193.5 19.33
28.5 194.5 19.18
28.5 195.5 19.11
28.5 196.5 19.15
28.5 197.5 19.02
28.5 198.5 18.88
28.5 199.5 18.89
28.5 200.5 19.11
28.5 201.5 19.14
28.5 202.5 19.07
28.5 203.5 19.02
28.5 204.5 19.05
28.5 205.5 19.02
28.5 206.5 19
28.5 207.5 19.05
28.5 208.5 19.14
28.5 209.5 19.13
27.5 180.5 20.89
27.5 181.5 20.81
27.5 182.5 20.74
27.5 183.5 20.54
27.5 184.5 20.13
27.5 185.5 19.98
27.5 186.5 19.96
27.5 187.5 20
27.5 188.5 20.2
27.5 189.5 20.23
27.5 190.5 20.24
27.5 191.5 20.24
27.5 192.5 20.38
27.5 193.5 20.21
27.5 194.5 20
27.5 195.5 19.84
27.5 196.5 19.97
27.5 197.5 19.83
27.5 198.5 19.7
27.5 199.5 19.72
27.5 200.5 20
27.5 201.5 20.02
27.5 202.5 19.96
27.5 203.5 19.91
27.5 204.5 19.95
27.5 205.5 19.82
27.5 206.5 19.73
27.5 207.5 19.72
27.5 208.5 19.85
27.5 209.5 19.82
26.5 180.5 21.82
26.5 181.5 21.74
26.5 182.5 21.65
26.5 183.5 21.46
26.5 184.5 21.13
26.5 185.5 21.02
26.5 186.5 21.02
26.5 187.5 21.07
26.5 188.5 21.11
26.5 189.5 21.08
26.5 190.5 21.06
26.5 191.5 21.02
26.5 192.5 21.04
26.5 193.5 20.88
26.5 194.5 20.69
26.5 195.5 20.58
26.5 196.5 20.83
26.5 197.5 20.75
26.5 198.5 20.66
26.5 199.5 20.69
26.5 200.5 20.94
26.5 201.5 20.92
26.5 202.5 20.85
26.5 203.5 20.76
26.5 204.5 20.66
26.5 205.5 20.51
26.5 206.5 20.42
26.5 207.5 20.4
26.5 208.5 20.56
26.5 209.5 20.52
25.5 180.5 22.69
25.5 181.5 22.62
25.5 182.5 22.52
25.5 183.5 22.34
25.5 184.5 22.15
25.5 185.5 22.09
25.5 186.5 22.14
25.5 187.5 22.21
25.5 188.5 22.12
25.5 189.5 22.04
25.5 190.5 21.95
25.5 191.5 21.82
25.5 192.5 21.63
25.5 193.5 21.46
25.5 194.5 21.31
25.5 195.5 21.26
25.5 196.5 21.61
25.5 197.5 21.6
25.5 198.5 21.56
25.5 199.5 21.59
25.5 200.5 21.79
25.5 201.5 21.73
25.5 202.5 21.62
25.5 203.5 21.5
25.5 204.5 21.35
25.5 205.5 21.23
25.5 206.5 21.16
25.5 207.5 21.15
25.5 208.5 21.3
25.5 209.5 21.25
24.5 180.5 23.39
24.5 181.5 23.31
24.5 182.5 23.19
24.5 183.5 23.01
24.5 184.5 22.91
24.5 185.5 22.9
24.5 186.5 22.99
24.5 187.5 23.1
24.5 188.5 23.02
24.5 189.5 22.91
24.5 190.5 22.76
24.5 191.5 22.56
24.5 192.5 22.25
24.5 193.5 22.08
24.5 194.5 21.96
24.5 195.5 21.96
24.5 196.5 22.32
24.5 197.5 22.35
24.5 198.5 22.34
24.5 199.5 22.36
24.5 200.5 22.49
24.5 201.5 22.4
24.5 202.5 22.26
24.5 203.5 22.13
24.5 204.5 22.05
24.5 205.5 21.97
24.5 206.5 21.95
24.5 207.5 21.93
24.5 208.5 22.05
24.5 209.5 21.97
23.5 180.5 23.72
23.5 181.5 23.63
23.5 182.5 23.51
23.5 183.5 23.37
23.5 184.5 23.3
23.5 185.5 23.33
23.5 186.5 23.47
23.5 187.5 23.64
23.5 188.5 23.7
23.5 189.5 23.58
23.5 190.5 23.41
23.5 191.5 23.2
23.5 192.5 22.96
23.5 193.5 22.82
23.5 194.5 22.73
23.5 195.5 22.74
23.5 196.5 22.93
23.5 197.5 22.98
23.5 198.5 22.97
23.5 199.5 22.96
23.5 200.5 23
23.5 201.5 22.9
23.5 202.5 22.8
23.5 203.5 22.75
23.5 204.5 22.81
23.5 205.5 22.8
23.5 206.5 22.77
23.5 207.5 22.71
23.5 208.5 22.7
23.5 209.5 22.62
22.5 180.5 24.09
22.5 181.5 23.97
22.5 182.5 23.83
22.5 183.5 23.67
22.5 184.5 23.59
22.5 185.5 23.61
22.5 186.5 23.73
22.5 187.5 23.92
22.5 188.5 24.07
22.5 189.5 24.03
22.5 190.5 23.94
22.5 191.5 23.81
22.5 192.5 23.67
22.5 193.5 23.57
22.5 194.5 23.51
22.5 195.5 23.49
22.5 196.5 23.53
22.5 197.5 23.55
22.5 198.5 23.56
22.5 199.5 23.54
22.5 200.5 23.51
22.5 201.5 23.41
22.5 202.5 23.33
22.5 203.5 23.31
22.5 204.5 23.4
22.5 205.5 23.39
22.5 206.5 23.34
22.5 207.5 23.24
22.5 208.5 23.13
22.5 209.5 23.02
21.5 180.5 24.47
21.5 181.5 24.36
21.5 182.5 24.2
21.5 183.5 24.07
21.5 184.5 24.03
21.5 185.5 24.05
21.5 186.5 24.14
21.5 187.5 24.3
21.5 188.5 24.46
21.5 189.5 24.49
21.5 190.5 24.47
21.5 191.5 24.42
21.5 192.5 24.33
21.5 193.5 24.27
21.5 194.5 24.22
21.5 195.5 24.17
21.5 196.5 24.09
21.5 197.5 24.09
21.5 198.5 24.09
21.5 199.5 24.07
21.5 200.5 23.99
21.5 201.5 23.92
21.5 202.5 23.87
21.5 203.5 23.84
21.5 204.5 23.91
21.5 205.5 23.88
21.5 206.5 23.8
21.5 207.5 23.66
21.5 208.5 23.48
21.5 209.5 23.37
20.5 180.5 24.92
20.5 181.5 24.83
20.5 182.5 24.7
20.5 183.5 24.62
20.5 184.5 24.64
20.5 185.5 24.65
20.5 186.5 24.7
20.5 187.5 24.8
20.5 188.5 24.91
20.5 189.5 24.95
20.5 190.5 24.96
20.5 191.5 24.93
20.5 192.5 24.86
20.5 193.5 24.81
20.5 194.5 24.76
20.5 195.5 24.7
20.5 196.5 24.58
20.5 197.5 24.56
20.5 198.5 24.56
20.5 199.5 24.54
20.5 200.5 24.45
20.5 201.5 24.4
20.5 202.5 24.37
20.5 203.5 24.34
20.5 204.5 24.32
20.5 205.5 24.25
20.5 206.5 24.14
20.5 207.5 23.97
20.5 208.5 23.78
20.5 209.5 23.68
19.5 180.5 25.35
19.5 181.5 25.28
19.5 182.5 25.19
19.5 183.5 25.14
19.5 184.5 25.16
19.5 185.5 25.2
19.5 186.5 25.24
19.5 187.5 25.29
19.5 188.5 25.31
19.5 189.5 25.31
19.5 190.5 25.3
19.5 191.5 25.26
19.5 192.5 25.17
19.5 193.5 25.1
19.5 194.5 25.05
19.5 195.5 25
19.5 196.5 24.94
19.5 197.5 24.91
19.5 198.5 24.9
19.5 199.5 24.89
19.5 200.5 24.8
19.5 201.5 24.78
19.5 202.5 24.76
19.5 203.5 24.72
19.5 204.5 24.61
19.5 205.5 24.49
19.5 206.5 24.33
19.5 207.5 24.15
19.5 208.5 23.99
19.5 209.5 23.92
18.5 180.5 25.74
18.5 181.5 25.69
18.5 182.5 25.62
18.5 183.5 25.59
18.5 184.5 25.57
18.5 185.5 25.57
18.5 186.5 25.57
18.5 187.5 25.56
18.5 188.5 25.52
18.5 189.5 25.48
18.5 190.5 25.44
18.5 191.5 25.39
18.5 192.5 25.32
18.5 193.5 25.26
18.5 194.5 25.22
18.5 195.5 25.2
18.5 196.5 25.2
18.5 197.5 25.17
18.5 198.5 25.14
18.5 199.5 25.11
18.5 200.5 24.98
18.5 201.5 24.95
18.5 202.5 24.9
18.5 203.5 24.84
18.5 204.5 24.75
18.5 205.5 24.64
18.5 206.5 24.5
18.5 207.5 24.35
18.5 208.5 24.26
18.5 209.5 24.19
17.5 180.5 25.97
17.5 181.5 25.92
17.5 182.5 25.88
17.5 183.5 25.84
17.5 184.5 25.8
17.5 185.5 25.75
17.5 186.5 25.71
17.5 187.5 25.66
17.5 188.5 25.6
17.5 189.5 25.54
17.5 190.5 25.48
17.5 191.5 25.43
17.5 192.5 25.39
17.5 193.5 25.34
17.5 194.5 25.32
17.5 195.5 25.32
17.5 196.5 25.34
17.5 197.5 25.31
17.5 198.5 25.26
17.5 199.5 25.2
17.5 200.5 25.05
17.5 201.5 24.99
17.5 202.5 24.91
17.5 203.5 24.84
17.5 204.5 24.8
17.5 205.5 24.76
17.5 206.5 24.68
17.5 207.5 24.57
17.5 208.5 24.55
17.5 209.5 24.5
16.5 180.5 26.08
16.5 181.5 26.05
16.5 182.5 26.01
16.5 183.5 25.97
16.5 184.5 25.91
16.5 185.5 25.84
16.5 186.5 25.77
16.5 187.5 25.69
16.5 188.5 25.63
16.5 189.5 25.57
16.5 190.5 25.52
16.5 191.5 25.47
16.5 192.5 25.45
16.5 193.5 25.43
16.5 194.5 25.43
16.5 195.5 25.45
16.5 196.5 25.45
16.5 197.5 25.41
16.5 198.5 25.34
16.5 199.5 25.26
16.5 200.5 25.1
16.5 201.5 25.02
16.5 202.5 24.93
16.5 203.5 24.87
16.5 204.5 24.89
16.5 205.5 24.92
16.5 206.5 24.9
16.5 207.5 24.86
16.5 208.5 24.86
16.5 209.5 24.82
15.5 180.5 26.16
15.5 181.5 26.16
15.5 182.5 26.13
15.5 183.5 26.08
15.5 184.5 26
15.5 185.5 25.89
15.5 186.5 25.79
15.5 187.5 25.71
15.5 188.5 25.67
15.5 189.5 25.66
15.5 190.5 25.64
15.5 191.5 25.61
15.5 192.5 25.59
15.5 193.5 25.58
15.5 194.5 25.59
15.5 195.5 25.62
15.5 196.5 25.58
15.5 197.5 25.52
15.5 198.5 25.44
15.5 199.5 25.34
15.5 200.5 25.17
15.5 201.5 25.11
15.5 202.5 25.04
15.5 203.5 25.02
15.5 204.5 25.09
15.5 205.5 25.17
15.5 206.5 25.2
15.5 207.5 25.18
15.5 208.5 25.17
15.5 209.5 25.11
14.5 180.5 26.28
14.5 181.5 26.29
14.5 182.5 26.27
14.5 183.5 26.23
14.5 184.5 26.12
14.5 185.5 25.99
14.5 186.5 25.87
14.5 187.5 25.77
14.5 188.5 25.76
14.5 189.5 25.77
14.5 190.5 25.78
14.5 191.5 25.78
14.5 192.5 25.8
14.5 193.5 25.8
14.5 194.5 25.81
14.5 195.5 25.84
14.5 196.5 25.76
14.5 197.5 25.7
14.5 198.5 25.63
14.5 199.5 25.52
14.5 200.5 25.34
14.5 201.5 25.29
14.5 202.5 25.27
14.5 203.5 25.28
14.5 204.5 25.39
14.5 205.5 25.49
14.5 206.5 25.57
14.5 207.5 25.57
14.5 208.5 25.52
14.5 209.5 25.43
13.5 180.5 26.39
13.5 181.5 26.39
13.5 182.5 26.37
13.5 183.5 26.33
13.5 184.5 26.2
13.5 185.5 26.07
13.5 186.5 25.95
13.5 187.5 25.85
13.5 188.5 25.89
13.5 189.5 25.92
13.5 190.5 25.94
13.5 191.5 25.95
13.5 192.5 26
13.5 193.5 26
13.5 194.5 26.02
13.5 195.5 26.03
13.5 196.5 25.92
13.5 197.5 25.87
13.5 198.5 25.81
13.5 199.5 25.71
13.5 200.5 25.54
13.5 201.5 25.52
13.5 202.5 25.54
13.5 203.5 25.6
13.5 204.5 25.73
13.5 205.5 25.85
13.5 206.5 25.94
13.5 207.5 25.93
13.5 208.5 25.85
13.5 209.5 25.74
12.5 180.5 26.48
12.5 181.5 26.46
12.5 182.5 26.43
12.5 183.5 26.39
12.5 184.5 26.26
12.5 185.5 26.16
12.5 186.5 26.06
12.5 187.5 26
12.5 188.5 26.09
12.5 189.5 26.13
12.5 190.5 26.15
12.5 191.5 26.15
12.5 192.5 26.19
12.5 193.5 26.19
12.5 194.5 26.21
12.5 195.5 26.22
12.5 196.5 26.11
12.5 197.5 26.06
12.5 198.5 26.01
12.5 199.5 25.91
12.5 200.5 25.77
12.5 201.5 25.78
12.5 202.5 25.84
12.5 203.5 25.95
12.5 204.5 26.1
12.5 205.5 26.24
12.5 206.5 26.31
12.5 207.5 26.3
12.5 208.5 26.17
12.5 209.5 26.04
11.5 180.5 26.55
11.5 181.5 26.5
11.5 182.5 26.44
11.5 183.5 26.37
11.5 184.5 26.31
11.5 185.5 26.27
11.5 186.5 26.24
11.5 187.5 26.25
11.5 188.5 26.38
11.5 189.5 26.43
11.5 190.5 26.43
11.5 191.5 26.42
11.5 192.5 26.42
11.5 193.5 26.42
11.5 194.5 26.45
11.5 195.5 26.47
11.5 196.5 26.41
11.5 197.5 26.35
11.5 198.5 26.28
11.5 199.5 26.17
11.5 200.5 26.05
11.5 201.5 26.09
11.5 202.5 26.19
11.5 203.5 26.35
11.5 204.5 26.52
11.5 205.5 26.65
11.5 206.5 26.72
11.5 207.5 26.68
11.5 208.5 26.55
11.5 209.5 26.4
10.5 180.5 26.72
10.5 181.5 26.67
10.5 182.5 26.59
10.5 183.5 26.52
10.5 184.5 26.5
10.5 185.5 26.51
10.5 186.5 26.54
10.5 187.5 26.62
10.5 188.5 26.8
10.5 189.5 26.83
10.5 190.5 26.81
10.5 191.5 26.76
10.5 192.5 26.73
10.5 193.5 26.74
10.5 194.5 26.79
10.5 195.5 26.83
10.5 196.5 26.8
10.5 197.5 26.76
10.5 198.5 26.7
10.5 199.5 26.58
10.5 200.5 26.46
10.5 201.5 26.49
10.5 202.5 26.59
10.5 203.5 26.75
10.5 204.5 26.93
10.5 205.5 27.06
10.5 206.5 27.12
10.5 207.5 27.09
10.5 208.5 26.98
10.5 209.5 26.85
